  540000.0000000 4188000.0000000      30.1570653
  541000.0000000 4188000.0000000      30.1110371
  546000.0000000 4188000.0000000      30.0594560
  547000.0000000 4188000.0000000      30.0904048
  548000.0000000 4188000.0000000      30.1309038
  549000.0000000 4188000.0000000      30.1887959
  550000.0000000 4188000.0000000      30.2384993
  551000.0000000 4188000.0000000      30.2298694
  552000.0000000 4188000.0000000      30.1171923
  553000.0000000 4188000.0000000      29.9948314
  554000.0000000 4188000.0000000      29.9185868
  555000.0000000 4188000.0000000      29.8721954
  556000.0000000 4188000.0000000      29.8243652
  557000.0000000 4188000.0000000      29.7896264
  558000.0000000 4188000.0000000      29.7657770
  559000.0000000 4188000.0000000      29.7485828
  560000.0000000 4188000.0000000      29.7366894
  561000.0000000 4188000.0000000      29.7296763
  562000.0000000 4188000.0000000      29.7222558
  500000.0000000 4189000.0000000      32.9999991
  501000.0000000 4189000.0000000      33.0000000
  502000.0000000 4189000.0000000      33.0000000
  503000.0000000 4189000.0000000      33.0000000
  504000.0000000 4189000.0000000      32.9999999
  505000.0000000 4189000.0000000      32.9999999
  506000.0000000 4189000.0000000      32.9999998
  507000.0000000 4189000.0000000      32.9999997
  508000.0000000 4189000.0000000      32.9999995
  509000.0000000 4189000.0000000      32.9999991
  510000.0000000 4189000.0000000      32.9999986
  511000.0000000 4189000.0000000      32.9999973
  512000.0000000 4189000.0000000      32.9999952
  513000.0000000 4189000.0000000      32.9999911
  514000.0000000 4189000.0000000      32.9999828
  515000.0000000 4189000.0000000      32.9999666
  516000.0000000 4189000.0000000      32.9999371
  517000.0000000 4189000.0000000      32.9998798
  518000.0000000 4189000.0000000      32.9997639
  519000.0000000 4189000.0000000      32.9995504
  520000.0000000 4189000.0000000      32.9991269
  521000.0000000 4189000.0000000      32.9983291
  522000.0000000 4189000.0000000      32.9968709
  523000.0000000 4189000.0000000      32.9941494
  524000.0000000 4189000.0000000      32.9889679
  525000.0000000 4189000.0000000      32.9790281
  526000.0000000 4189000.0000000      32.9599051
  527000.0000000 4189000.0000000      32.9222633
  528000.0000000 4189000.0000000      32.8484387
  529000.0000000 4189000.0000000      32.7047159
  530000.0000000 4189000.0000000      32.4733869
  531000.0000000 4189000.0000000      32.1737458
  532000.0000000 4189000.0000000      31.8167349
  533000.0000000 4189000.0000000      31.4353410
  534000.0000000 4189000.0000000      31.0692038
  535000.0000000 4189000.0000000      30.7492322
  536000.0000000 4189000.0000000      30.4924146
  537000.0000000 4189000.0000000      30.3245900
  538000.0000000 4189000.0000000      30.2533348
  539000.0000000 4189000.0000000      30.2038269
  545000.0000000 4189000.0000000      30.0033129
  546000.0000000 4189000.0000000      30.0033644
  547000.0000000 4189000.0000000      30.0288563
  548000.0000000 4189000.0000000      30.0918968
  549000.0000000 4189000.0000000      30.1851420
  550000.0000000 4189000.0000000      30.2897484
  551000.0000000 4189000.0000000      30.3654991
  552000.0000000 4189000.0000000      30.1454563
  553000.0000000 4189000.0000000      30.0027820
  554000.0000000 4189000.0000000      29.9098444
  555000.0000000 4189000.0000000      29.8476314
  556000.0000000 4189000.0000000      29.7993120
  557000.0000000 4189000.0000000      29.7622359
  558000.0000000 4189000.0000000      29.7364747
  559000.0000000 4189000.0000000      29.7192071
  560000.0000000 4189000.0000000      29.7111424
  561000.0000000 4189000.0000000      29.7112152
  562000.0000000 4189000.0000000      29.4441453
  499000.0000000 4190000.0000000      32.9999991
  500000.0000000 4190000.0000000      33.0000000
  501000.0000000 4190000.0000000      33.0000000
  502000.0000000 4190000.0000000      33.0000000
  503000.0000000 4190000.0000000      33.0000000
  504000.0000000 4190000.0000000      32.9999999
  505000.0000000 4190000.0000000      32.9999999
  506000.0000000 4190000.0000000      32.9999998
  507000.0000000 4190000.0000000      32.9999997
  508000.0000000 4190000.0000000      32.9999994
  509000.0000000 4190000.0000000      32.9999991
  510000.0000000 4190000.0000000      32.9999982
  511000.0000000 4190000.0000000      32.9999970
  512000.0000000 4190000.0000000      32.9999944
  513000.0000000 4190000.0000000      32.9999897
  514000.0000000 4190000.0000000      32.9999813
  515000.0000000 4190000.0000000      32.9999644
  516000.0000000 4190000.0000000      32.9999312
  517000.0000000 4190000.0000000      32.9998711
  518000.0000000 4190000.0000000      32.9997540
  519000.0000000 4190000.0000000      32.9995388
  520000.0000000 4190000.0000000      32.9991193
  521000.0000000 4190000.0000000      32.9983522
  522000.0000000 4190000.0000000      32.9969228
  523000.0000000 4190000.0000000      32.9942200
  524000.0000000 4190000.0000000      32.9891888
  525000.0000000 4190000.0000000      32.9796632
  526000.0000000 4190000.0000000      32.9612168
  527000.0000000 4190000.0000000      32.9248352
  528000.0000000 4190000.0000000      32.8517062
  529000.0000000 4190000.0000000      32.7134727
  530000.0000000 4190000.0000000      32.5101097
  531000.0000000 4190000.0000000      32.2398660
  532000.0000000 4190000.0000000      31.9068776
  533000.0000000 4190000.0000000      31.5378056
  534000.0000000 4190000.0000000      31.1837297
  535000.0000000 4190000.0000000      30.8461658
  536000.0000000 4190000.0000000      30.5726004
  537000.0000000 4190000.0000000      30.3700606
  538000.0000000 4190000.0000000      30.2851476
  545000.0000000 4190000.0000000      29.9546188
  546000.0000000 4190000.0000000      29.9514137
  547000.0000000 4190000.0000000      29.9469739
  548000.0000000 4190000.0000000      29.9583835
  549000.0000000 4190000.0000000      30.0815981
  550000.0000000 4190000.0000000      30.1993340
  551000.0000000 4190000.0000000      30.1234442
  552000.0000000 4190000.0000000      29.9980271
  553000.0000000 4190000.0000000      29.8973652
  554000.0000000 4190000.0000000      29.8210044
  555000.0000000 4190000.0000000      29.7652712
  556000.0000000 4190000.0000000      29.7244033
  557000.0000000 4190000.0000000      29.6971759
  558000.0000000 4190000.0000000      29.6802516
  559000.0000000 4190000.0000000      29.6710225
  560000.0000000 4190000.0000000      29.6721287
  561000.0000000 4190000.0000000      29.6850259
  562000.0000000 4190000.0000000      29.0969502
  498000.0000000 4191000.0000000      32.9999992
  499000.0000000 4191000.0000000      33.0000000
  500000.0000000 4191000.0000000      33.0000000
  501000.0000000 4191000.0000000      33.0000000
  502000.0000000 4191000.0000000      33.0000000
  503000.0000000 4191000.0000000      33.0000000
  504000.0000000 4191000.0000000      32.9999999
  505000.0000000 4191000.0000000      32.9999999
  506000.0000000 4191000.0000000      32.9999998
  507000.0000000 4191000.0000000      32.9999996
  508000.0000000 4191000.0000000      32.9999994
  509000.0000000 4191000.0000000      32.9999989
  510000.0000000 4191000.0000000      32.9999981
  511000.0000000 4191000.0000000      32.9999965
  512000.0000000 4191000.0000000      32.9999938
  513000.0000000 4191000.0000000      32.9999886
  514000.0000000 4191000.0000000      32.9999787
  515000.0000000 4191000.0000000      32.9999615
  516000.0000000 4191000.0000000      32.9999265
  517000.0000000 4191000.0000000      32.9998640
  518000.0000000 4191000.0000000      32.9997455
  519000.0000000 4191000.0000000      32.9995312
  520000.0000000 4191000.0000000      32.9991204
  521000.0000000 4191000.0000000      32.9983598
  522000.0000000 4191000.0000000      32.9969945
  523000.0000000 4191000.0000000      32.9944502
  524000.0000000 4191000.0000000      32.9895380
  525000.0000000 4191000.0000000      32.9804030
  526000.0000000 4191000.0000000      32.9625670
  527000.0000000 4191000.0000000      32.9270132
  528000.0000000 4191000.0000000      32.8548614
  529000.0000000 4191000.0000000      32.7321934
  530000.0000000 4191000.0000000      32.5568560
  531000.0000000 4191000.0000000      32.3271339
  532000.0000000 4191000.0000000      32.0381308
  533000.0000000 4191000.0000000      31.7044471
  534000.0000000 4191000.0000000      31.3320930
  535000.0000000 4191000.0000000      30.9649588
  536000.0000000 4191000.0000000      30.7652532
  537000.0000000 4191000.0000000      30.5902006
  544000.0000000 4191000.0000000      29.9299248
  545000.0000000 4191000.0000000      29.9177701
  546000.0000000 4191000.0000000      29.9110175
  547000.0000000 4191000.0000000      29.8583486
  548000.0000000 4191000.0000000      29.7635230
  549000.0000000 4191000.0000000      29.6190940
  550000.0000000 4191000.0000000      29.6929698
  551000.0000000 4191000.0000000      29.6718556
  552000.0000000 4191000.0000000      29.7269442
  553000.0000000 4191000.0000000      29.7125239
  554000.0000000 4191000.0000000      29.6694935
  555000.0000000 4191000.0000000      29.6285307
  556000.0000000 4191000.0000000      29.6000602
  557000.0000000 4191000.0000000      29.5883578
  558000.0000000 4191000.0000000      29.5891693
  559000.0000000 4191000.0000000      29.5978915
  560000.0000000 4191000.0000000      29.6130171
  561000.0000000 4191000.0000000      29.6011873
  497000.0000000 4192000.0000000      32.9999993
  498000.0000000 4192000.0000000      32.9999999
  499000.0000000 4192000.0000000      33.0000000
  500000.0000000 4192000.0000000      33.0000000
  501000.0000000 4192000.0000000      33.0000000
  502000.0000000 4192000.0000000      33.0000000
  503000.0000000 4192000.0000000      33.0000000
  504000.0000000 4192000.0000000      32.9999999
  505000.0000000 4192000.0000000      32.9999999
  506000.0000000 4192000.0000000      32.9999998
  507000.0000000 4192000.0000000      32.9999996
  508000.0000000 4192000.0000000      32.9999994
  509000.0000000 4192000.0000000      32.9999989
  510000.0000000 4192000.0000000      32.9999980
  511000.0000000 4192000.0000000      32.9999963
  512000.0000000 4192000.0000000      32.9999932
  513000.0000000 4192000.0000000      32.9999873
  514000.0000000 4192000.0000000      32.9999771
  515000.0000000 4192000.0000000      32.9999582
  516000.0000000 4192000.0000000      32.9999223
  517000.0000000 4192000.0000000      32.9998574
  518000.0000000 4192000.0000000      32.9997373
  519000.0000000 4192000.0000000      32.9995283
  520000.0000000 4192000.0000000      32.9991314
  521000.0000000 4192000.0000000      32.9983959
  522000.0000000 4192000.0000000      32.9970877
  523000.0000000 4192000.0000000      32.9946544
  524000.0000000 4192000.0000000      32.9901560
  525000.0000000 4192000.0000000      32.9814627
  526000.0000000 4192000.0000000      32.9638692
  527000.0000000 4192000.0000000      32.9273216
  528000.0000000 4192000.0000000      32.8586065
  529000.0000000 4192000.0000000      32.7539842
  530000.0000000 4192000.0000000      32.6112682
  531000.0000000 4192000.0000000      32.4279900
  532000.0000000 4192000.0000000      32.2030445
  533000.0000000 4192000.0000000      31.9737530
  534000.0000000 4192000.0000000      31.5286595
  535000.0000000 4192000.0000000      31.0715949
  542000.0000000 4192000.0000000      29.9663693
  543000.0000000 4192000.0000000      29.9209689
  544000.0000000 4192000.0000000      29.9113128
  545000.0000000 4192000.0000000      29.9093473
  546000.0000000 4192000.0000000      29.9008507
  547000.0000000 4192000.0000000      29.8033820
  548000.0000000 4192000.0000000      29.5837840
  549000.0000000 4192000.0000000      29.4432351
  550000.0000000 4192000.0000000      29.3993831
  551000.0000000 4192000.0000000      29.4696270
  552000.0000000 4192000.0000000      29.4978268
  553000.0000000 4192000.0000000      29.5059588
  554000.0000000 4192000.0000000      29.4935692
  555000.0000000 4192000.0000000      29.4686348
  556000.0000000 4192000.0000000      29.4535909
  557000.0000000 4192000.0000000      29.4575683
  558000.0000000 4192000.0000000      29.4763082
  559000.0000000 4192000.0000000      29.5031222
  560000.0000000 4192000.0000000      29.5237155
  561000.0000000 4192000.0000000      29.3806791
  497000.0000000 4193000.0000000      32.9999998
  498000.0000000 4193000.0000000      33.0000000
  500000.0000000 4193000.0000000      33.0000000
  502000.0000000 4193000.0000000      33.0000000
  503000.0000000 4193000.0000000      33.0000000
  504000.0000000 4193000.0000000      32.9999999
  505000.0000000 4193000.0000000      32.9999999
  506000.0000000 4193000.0000000      32.9999998
  507000.0000000 4193000.0000000      32.9999996
  508000.0000000 4193000.0000000      32.9999993
  509000.0000000 4193000.0000000      32.9999988
  510000.0000000 4193000.0000000      32.9999978
  511000.0000000 4193000.0000000      32.9999961
  512000.0000000 4193000.0000000      32.9999927
  513000.0000000 4193000.0000000      32.9999866
  514000.0000000 4193000.0000000      32.9999753
  515000.0000000 4193000.0000000      32.9999561
  516000.0000000 4193000.0000000      32.9999186
  517000.0000000 4193000.0000000      32.9998550
  518000.0000000 4193000.0000000      32.9997332
  519000.0000000 4193000.0000000      32.9995260
  520000.0000000 4193000.0000000      32.9991585
  521000.0000000 4193000.0000000      32.9984934
  522000.0000000 4193000.0000000      32.9972551
  523000.0000000 4193000.0000000      32.9950906
  524000.0000000 4193000.0000000      32.9907990
  525000.0000000 4193000.0000000      32.9827171
  526000.0000000 4193000.0000000      32.9639926
  527000.0000000 4193000.0000000      32.9232703
  528000.0000000 4193000.0000000      32.8606767
  529000.0000000 4193000.0000000      32.7732779
  530000.0000000 4193000.0000000      32.6645804
  531000.0000000 4193000.0000000      32.5183414
  532000.0000000 4193000.0000000      32.3800330
  533000.0000000 4193000.0000000      31.9347600
  542000.0000000 4193000.0000000      29.8475569
  543000.0000000 4193000.0000000      29.8179353
  544000.0000000 4193000.0000000      29.9093314
  545000.0000000 4193000.0000000      29.9072825
  546000.0000000 4193000.0000000      29.8637123
  547000.0000000 4193000.0000000      29.1923603
  548000.0000000 4193000.0000000      28.9779677
  549000.0000000 4193000.0000000      29.0182336
  550000.0000000 4193000.0000000      29.2274380
  551000.0000000 4193000.0000000      29.3197438
  552000.0000000 4193000.0000000      29.3072308
  553000.0000000 4193000.0000000      29.2971980
  554000.0000000 4193000.0000000      29.2980476
  555000.0000000 4193000.0000000      29.3070379
  556000.0000000 4193000.0000000      29.3159425
  557000.0000000 4193000.0000000      29.3364109
  558000.0000000 4193000.0000000      29.3688366
  559000.0000000 4193000.0000000      29.4086640
  560000.0000000 4193000.0000000      29.4509970
  561000.0000000 4193000.0000000      28.9071333
  496000.0000000 4194000.0000000      32.9999998
  497000.0000000 4194000.0000000      33.0000000
  498000.0000000 4194000.0000000      33.0000000
  499000.0000000 4194000.0000000      33.0000000
  501000.0000000 4194000.0000000      33.0000000
  502000.0000000 4194000.0000000      33.0000000
  503000.0000000 4194000.0000000      33.0000000
  504000.0000000 4194000.0000000      32.9999999
  506000.0000000 4194000.0000000      32.9999998
  507000.0000000 4194000.0000000      32.9999996
  508000.0000000 4194000.0000000      32.9999993
  509000.0000000 4194000.0000000      32.9999987
  510000.0000000 4194000.0000000      32.9999977
  511000.0000000 4194000.0000000      32.9999958
  512000.0000000 4194000.0000000      32.9999924
  513000.0000000 4194000.0000000      32.9999858
  514000.0000000 4194000.0000000      32.9999744
  515000.0000000 4194000.0000000      32.9999543
  516000.0000000 4194000.0000000      32.9999171
  517000.0000000 4194000.0000000      32.9998522
  518000.0000000 4194000.0000000      32.9997404
  519000.0000000 4194000.0000000      32.9995338
  520000.0000000 4194000.0000000      32.9991956
  521000.0000000 4194000.0000000      32.9985797
  522000.0000000 4194000.0000000      32.9975797
  523000.0000000 4194000.0000000      32.9958013
  524000.0000000 4194000.0000000      32.9922966
  525000.0000000 4194000.0000000      32.9843850
  526000.0000000 4194000.0000000      32.9579271
  527000.0000000 4194000.0000000      32.9128347
  528000.0000000 4194000.0000000      32.8578050
  529000.0000000 4194000.0000000      32.7931207
  530000.0000000 4194000.0000000      32.6996167
  531000.0000000 4194000.0000000      32.6015951
  532000.0000000 4194000.0000000      32.3839949
  544000.0000000 4194000.0000000      29.6871125
  545000.0000000 4194000.0000000      29.9071422
  546000.0000000 4194000.0000000      29.2076778
  547000.0000000 4194000.0000000      28.4288727
  548000.0000000 4194000.0000000      28.2538651
  549000.0000000 4194000.0000000      28.5108300
  550000.0000000 4194000.0000000      28.7955725
  551000.0000000 4194000.0000000      28.9792938
  552000.0000000 4194000.0000000      29.0376178
  553000.0000000 4194000.0000000      29.0569784
  554000.0000000 4194000.0000000      29.0916258
  555000.0000000 4194000.0000000      29.1458343
  556000.0000000 4194000.0000000      29.2039246
  557000.0000000 4194000.0000000      29.2485352
  558000.0000000 4194000.0000000      29.2882120
  559000.0000000 4194000.0000000      29.3250286
  560000.0000000 4194000.0000000      29.2532420
  495000.0000000 4195000.0000000      32.9999998
  496000.0000000 4195000.0000000      33.0000000
  497000.0000000 4195000.0000000      33.0000000
  498000.0000000 4195000.0000000      33.0000000
  499000.0000000 4195000.0000000      33.0000000
  500000.0000000 4195000.0000000      33.0000000
  501000.0000000 4195000.0000000      33.0000000
  502000.0000000 4195000.0000000      33.0000000
  503000.0000000 4195000.0000000      33.0000000
  505000.0000000 4195000.0000000      32.9999999
  506000.0000000 4195000.0000000      32.9999998
  507000.0000000 4195000.0000000      32.9999996
  508000.0000000 4195000.0000000      32.9999993
  509000.0000000 4195000.0000000      32.9999987
  510000.0000000 4195000.0000000      32.9999976
  511000.0000000 4195000.0000000      32.9999957
  512000.0000000 4195000.0000000      32.9999920
  513000.0000000 4195000.0000000      32.9999854
  514000.0000000 4195000.0000000      32.9999739
  515000.0000000 4195000.0000000      32.9999532
  516000.0000000 4195000.0000000      32.9999176
  517000.0000000 4195000.0000000      32.9998551
  518000.0000000 4195000.0000000      32.9997437
  519000.0000000 4195000.0000000      32.9995666
  520000.0000000 4195000.0000000      32.9992551
  521000.0000000 4195000.0000000      32.9987363
  522000.0000000 4195000.0000000      32.9979161
  523000.0000000 4195000.0000000      32.9965994
  524000.0000000 4195000.0000000      32.9943953
  525000.0000000 4195000.0000000      32.9772324
  526000.0000000 4195000.0000000      32.9356404
  527000.0000000 4195000.0000000      32.8940484
  528000.0000000 4195000.0000000      32.8547475
  529000.0000000 4195000.0000000      32.8040911
  530000.0000000 4195000.0000000      32.7367087
  531000.0000000 4195000.0000000      32.5727745
  544000.0000000 4195000.0000000      28.8975000
  545000.0000000 4195000.0000000      29.0877139
  546000.0000000 4195000.0000000      28.3891087
  547000.0000000 4195000.0000000      27.8553122
  548000.0000000 4195000.0000000      27.9495557
  549000.0000000 4195000.0000000      28.1206088
  550000.0000000 4195000.0000000      28.2873238
  551000.0000000 4195000.0000000      28.4857214
  552000.0000000 4195000.0000000      28.6515593
  553000.0000000 4195000.0000000      28.7642537
  554000.0000000 4195000.0000000      28.8822267
  555000.0000000 4195000.0000000      29.0144796
  556000.0000000 4195000.0000000      29.1334478
  557000.0000000 4195000.0000000      29.2001945
  558000.0000000 4195000.0000000      29.2445220
  559000.0000000 4195000.0000000      29.2767204
  560000.0000000 4195000.0000000      28.7579303
  494000.0000000 4196000.0000000      32.9999999
  495000.0000000 4196000.0000000      33.0000000
  497000.0000000 4196000.0000000      33.0000000
  498000.0000000 4196000.0000000      33.0000000
  499000.0000000 4196000.0000000      33.0000000
  500000.0000000 4196000.0000000      33.0000000
  501000.0000000 4196000.0000000      33.0000000
  502000.0000000 4196000.0000000      33.0000000
  503000.0000000 4196000.0000000      33.0000000
  504000.0000000 4196000.0000000      32.9999999
  505000.0000000 4196000.0000000      32.9999999
  506000.0000000 4196000.0000000      32.9999998
  507000.0000000 4196000.0000000      32.9999996
  508000.0000000 4196000.0000000      32.9999993
  509000.0000000 4196000.0000000      32.9999987
  510000.0000000 4196000.0000000      32.9999976
  511000.0000000 4196000.0000000      32.9999956
  512000.0000000 4196000.0000000      32.9999918
  513000.0000000 4196000.0000000      32.9999851
  514000.0000000 4196000.0000000      32.9999739
  515000.0000000 4196000.0000000      32.9999531
  516000.0000000 4196000.0000000      32.9999198
  517000.0000000 4196000.0000000      32.9998611
  518000.0000000 4196000.0000000      32.9997605
  519000.0000000 4196000.0000000      32.9995930
  520000.0000000 4196000.0000000      32.9993287
  521000.0000000 4196000.0000000      32.9989077
  522000.0000000 4196000.0000000      32.9983160
  523000.0000000 4196000.0000000      32.9976021
  524000.0000000 4196000.0000000      32.9883537
  528000.0000000 4196000.0000000      32.8104086
  529000.0000000 4196000.0000000      32.6513275
  545000.0000000 4196000.0000000      28.3757920
  546000.0000000 4196000.0000000      27.6761979
  547000.0000000 4196000.0000000      27.7396437
  548000.0000000 4196000.0000000      27.7788297
  549000.0000000 4196000.0000000      27.8294590
  550000.0000000 4196000.0000000      27.9740220
  551000.0000000 4196000.0000000      28.1149443
  552000.0000000 4196000.0000000      28.2334240
  553000.0000000 4196000.0000000      28.3956968
  554000.0000000 4196000.0000000      28.6124300
  555000.0000000 4196000.0000000      28.9778725
  556000.0000000 4196000.0000000      29.1542749
  557000.0000000 4196000.0000000      29.1796597
  558000.0000000 4196000.0000000      29.1081770
  559000.0000000 4196000.0000000      28.7912310
  493000.0000000 4197000.0000000      33.0000000
  494000.0000000 4197000.0000000      33.0000000
  496000.0000000 4197000.0000000      33.0000000
  497000.0000000 4197000.0000000      33.0000000
  499000.0000000 4197000.0000000      33.0000000
  500000.0000000 4197000.0000000      33.0000000
  501000.0000000 4197000.0000000      33.0000000
  502000.0000000 4197000.0000000      33.0000000
  503000.0000000 4197000.0000000      33.0000000
  504000.0000000 4197000.0000000      32.9999999
  505000.0000000 4197000.0000000      32.9999999
  506000.0000000 4197000.0000000      32.9999998
  507000.0000000 4197000.0000000      32.9999996
  508000.0000000 4197000.0000000      32.9999993
  509000.0000000 4197000.0000000      32.9999987
  510000.0000000 4197000.0000000      32.9999976
  511000.0000000 4197000.0000000      32.9999956
  512000.0000000 4197000.0000000      32.9999918
  513000.0000000 4197000.0000000      32.9999856
  514000.0000000 4197000.0000000      32.9999738
  515000.0000000 4197000.0000000      32.9999559
  516000.0000000 4197000.0000000      32.9999228
  517000.0000000 4197000.0000000      32.9998696
  518000.0000000 4197000.0000000      32.9997775
  519000.0000000 4197000.0000000      32.9996404
  520000.0000000 4197000.0000000      32.9994196
  521000.0000000 4197000.0000000      32.9990930
  522000.0000000 4197000.0000000      32.9986649
  523000.0000000 4197000.0000000      32.9973613
  524000.0000000 4197000.0000000      32.9616564
  545000.0000000 4197000.0000000      27.8443030
  546000.0000000 4197000.0000000      27.5313648
  547000.0000000 4197000.0000000      27.5907220
  548000.0000000 4197000.0000000      27.6377719
  549000.0000000 4197000.0000000      27.6683898
  550000.0000000 4197000.0000000      27.7533109
  551000.0000000 4197000.0000000      27.8672040
  552000.0000000 4197000.0000000      27.9783896
  553000.0000000 4197000.0000000      28.0661335
  554000.0000000 4197000.0000000      28.2414531
  555000.0000000 4197000.0000000      28.7391606
  556000.0000000 4197000.0000000      29.0283069
  557000.0000000 4197000.0000000      28.6617013
  492000.0000000 4198000.0000000      33.0000000
  493000.0000000 4198000.0000000      33.0000000
  495000.0000000 4198000.0000000      33.0000000
  497000.0000000 4198000.0000000      33.0000000
  498000.0000000 4198000.0000000      33.0000000
  500000.0000000 4198000.0000000      33.0000000
  501000.0000000 4198000.0000000      33.0000000
  502000.0000000 4198000.0000000      33.0000000
  503000.0000000 4198000.0000000      33.0000000
  504000.0000000 4198000.0000000      32.9999999
  505000.0000000 4198000.0000000      32.9999999
  506000.0000000 4198000.0000000      32.9999998
  507000.0000000 4198000.0000000      32.9999996
  508000.0000000 4198000.0000000      32.9999993
  509000.0000000 4198000.0000000      32.9999987
  510000.0000000 4198000.0000000      32.9999976
  511000.0000000 4198000.0000000      32.9999956
  512000.0000000 4198000.0000000      32.9999921
  513000.0000000 4198000.0000000      32.9999857
  514000.0000000 4198000.0000000      32.9999756
  515000.0000000 4198000.0000000      32.9999570
  516000.0000000 4198000.0000000      32.9999293
  517000.0000000 4198000.0000000      32.9998802
  518000.0000000 4198000.0000000      32.9998091
  519000.0000000 4198000.0000000      32.9996963
  520000.0000000 4198000.0000000      32.9995173
  521000.0000000 4198000.0000000      32.9992583
  522000.0000000 4198000.0000000      32.9954747
  523000.0000000 4198000.0000000      32.7517560
  545000.0000000 4198000.0000000      27.3085707
  546000.0000000 4198000.0000000      27.3261290
  547000.0000000 4198000.0000000      27.3820506
  548000.0000000 4198000.0000000      27.4354565
  549000.0000000 4198000.0000000      27.4674926
  550000.0000000 4198000.0000000      27.4997235
  551000.0000000 4198000.0000000      27.5971091
  552000.0000000 4198000.0000000      27.7767397
  553000.0000000 4198000.0000000      27.7973754
  554000.0000000 4198000.0000000      27.8206267
  491000.0000000 4199000.0000000      33.0000000
  492000.0000000 4199000.0000000      33.0000000
  495000.0000000 4199000.0000000      33.0000000
  496000.0000000 4199000.0000000      33.0000000
  497000.0000000 4199000.0000000      33.0000000
  498000.0000000 4199000.0000000      33.0000000
  499000.0000000 4199000.0000000      33.0000000
  500000.0000000 4199000.0000000      33.0000000
  501000.0000000 4199000.0000000      33.0000000
  502000.0000000 4199000.0000000      33.0000000
  503000.0000000 4199000.0000000      33.0000000
  504000.0000000 4199000.0000000      32.9999999
  505000.0000000 4199000.0000000      32.9999999
  506000.0000000 4199000.0000000      32.9999998
  507000.0000000 4199000.0000000      32.9999996
  508000.0000000 4199000.0000000      32.9999993
  509000.0000000 4199000.0000000      32.9999987
  510000.0000000 4199000.0000000      32.9999977
  511000.0000000 4199000.0000000      32.9999957
  512000.0000000 4199000.0000000      32.9999923
  513000.0000000 4199000.0000000      32.9999867
  514000.0000000 4199000.0000000      32.9999763
  515000.0000000 4199000.0000000      32.9999615
  516000.0000000 4199000.0000000      32.9999352
  517000.0000000 4199000.0000000      32.9998980
  518000.0000000 4199000.0000000      32.9998396
  519000.0000000 4199000.0000000      32.9997554
  520000.0000000 4199000.0000000      32.9996052
  521000.0000000 4199000.0000000      32.9510071
  544000.0000000 4199000.0000000      27.3283394
  545000.0000000 4199000.0000000      27.0360675
  546000.0000000 4199000.0000000      27.0538279
  547000.0000000 4199000.0000000      27.0725765
  548000.0000000 4199000.0000000      27.0905993
  549000.0000000 4199000.0000000      27.1004656
  550000.0000000 4199000.0000000      27.1310347
  551000.0000000 4199000.0000000      27.2314034
  552000.0000000 4199000.0000000      27.4808309
  553000.0000000 4199000.0000000      27.0738353
  493000.0000000 4200000.0000000      33.0000000
  494000.0000000 4200000.0000000      33.0000000
  496000.0000000 4200000.0000000      33.0000000
  497000.0000000 4200000.0000000      33.0000000
  499000.0000000 4200000.0000000      33.0000000
  500000.0000000 4200000.0000000      33.0000000
  501000.0000000 4200000.0000000      33.0000000
  503000.0000000 4200000.0000000      33.0000000
  504000.0000000 4200000.0000000      32.9999999
  505000.0000000 4200000.0000000      32.9999999
  506000.0000000 4200000.0000000      32.9999998
  507000.0000000 4200000.0000000      32.9999996
  508000.0000000 4200000.0000000      32.9999993
  509000.0000000 4200000.0000000      32.9999987
  510000.0000000 4200000.0000000      32.9999977
  511000.0000000 4200000.0000000      32.9999959
  512000.0000000 4200000.0000000      32.9999927
  513000.0000000 4200000.0000000      32.9999873
  514000.0000000 4200000.0000000      32.9999791
  515000.0000000 4200000.0000000      32.9999648
  516000.0000000 4200000.0000000      32.9999445
  517000.0000000 4200000.0000000      32.9999128
  518000.0000000 4200000.0000000      32.9998749
  519000.0000000 4200000.0000000      32.9998248
  544000.0000000 4200000.0000000      27.0654406
  545000.0000000 4200000.0000000      26.7601832
  546000.0000000 4200000.0000000      26.7336853
  547000.0000000 4200000.0000000      26.6967958
  548000.0000000 4200000.0000000      26.6608289
  549000.0000000 4200000.0000000      26.6429892
  550000.0000000 4200000.0000000      26.6784697
  551000.0000000 4200000.0000000      26.8333049
  552000.0000000 4200000.0000000      26.6795789
  493000.0000000 4201000.0000000      33.0000000
  494000.0000000 4201000.0000000      33.0000000
  495000.0000000 4201000.0000000      33.0000000
  497000.0000000 4201000.0000000      33.0000000
  498000.0000000 4201000.0000000      33.0000000
  500000.0000000 4201000.0000000      33.0000000
  501000.0000000 4201000.0000000      33.0000000
  502000.0000000 4201000.0000000      33.0000000
  504000.0000000 4201000.0000000      32.9999999
  505000.0000000 4201000.0000000      32.9999999
  506000.0000000 4201000.0000000      32.9999998
  507000.0000000 4201000.0000000      32.9999996
  508000.0000000 4201000.0000000      32.9999993
  509000.0000000 4201000.0000000      32.9999987
  510000.0000000 4201000.0000000      32.9999978
  511000.0000000 4201000.0000000      32.9999960
  512000.0000000 4201000.0000000      32.9999932
  513000.0000000 4201000.0000000      32.9999883
  514000.0000000 4201000.0000000      32.9999809
  515000.0000000 4201000.0000000      32.9999704
  516000.0000000 4201000.0000000      32.9999521
  517000.0000000 4201000.0000000      32.9999313
  518000.0000000 4201000.0000000      32.9999033
  519000.0000000 4201000.0000000      32.9096901
  545000.0000000 4201000.0000000      26.4884001
  546000.0000000 4201000.0000000      26.4139046
  547000.0000000 4201000.0000000      26.3298043
  548000.0000000 4201000.0000000      26.2431345
  549000.0000000 4201000.0000000      26.1850531
  550000.0000000 4201000.0000000      26.2059737
  551000.0000000 4201000.0000000      26.2548172
  552000.0000000 4201000.0000000      25.9063041
  553000.0000000 4201000.0000000      25.6267552
  495000.0000000 4202000.0000000      33.0000000
  496000.0000000 4202000.0000000      33.0000000
  497000.0000000 4202000.0000000      33.0000000
  498000.0000000 4202000.0000000      33.0000000
  499000.0000000 4202000.0000000      33.0000000
  500000.0000000 4202000.0000000      33.0000000
  501000.0000000 4202000.0000000      33.0000000
  502000.0000000 4202000.0000000      33.0000000
  503000.0000000 4202000.0000000      33.0000000
  505000.0000000 4202000.0000000      32.9999999
  506000.0000000 4202000.0000000      32.9999998
  507000.0000000 4202000.0000000      32.9999996
  508000.0000000 4202000.0000000      32.9999993
  509000.0000000 4202000.0000000      32.9999987
  510000.0000000 4202000.0000000      32.9999978
  511000.0000000 4202000.0000000      32.9999963
  512000.0000000 4202000.0000000      32.9999936
  513000.0000000 4202000.0000000      32.9999897
  514000.0000000 4202000.0000000      32.9999834
  515000.0000000 4202000.0000000      32.9999738
  516000.0000000 4202000.0000000      32.9999631
  517000.0000000 4202000.0000000      32.9999453
  518000.0000000 4202000.0000000      32.9965788
  545000.0000000 4202000.0000000      26.2242610
  546000.0000000 4202000.0000000      26.1550163
  547000.0000000 4202000.0000000      26.0461872
  548000.0000000 4202000.0000000      25.9368729
  549000.0000000 4202000.0000000      25.8498952
  550000.0000000 4202000.0000000      25.7711052
  551000.0000000 4202000.0000000      25.4985020
  552000.0000000 4202000.0000000      25.2039506
  553000.0000000 4202000.0000000      25.0749091
  554000.0000000 4202000.0000000      25.1902297
  496000.0000000 4203000.0000000      33.0000000
  497000.0000000 4203000.0000000      33.0000000
  498000.0000000 4203000.0000000      33.0000000
  499000.0000000 4203000.0000000      33.0000000
  500000.0000000 4203000.0000000      33.0000000
  501000.0000000 4203000.0000000      33.0000000
  503000.0000000 4203000.0000000      33.0000000
  504000.0000000 4203000.0000000      32.9999999
  505000.0000000 4203000.0000000      32.9999999
  506000.0000000 4203000.0000000      32.9999998
  507000.0000000 4203000.0000000      32.9999996
  508000.0000000 4203000.0000000      32.9999993
  509000.0000000 4203000.0000000      32.9999988
  510000.0000000 4203000.0000000      32.9999979
  511000.0000000 4203000.0000000      32.9999964
  512000.0000000 4203000.0000000      32.9999944
  513000.0000000 4203000.0000000      32.9999907
  514000.0000000 4203000.0000000      32.9999856
  515000.0000000 4203000.0000000      32.9999789
  516000.0000000 4203000.0000000      32.9999694
  517000.0000000 4203000.0000000      32.9999623
  518000.0000000 4203000.0000000      32.8030630
  545000.0000000 4203000.0000000      25.9826020
  546000.0000000 4203000.0000000      25.9788014
  547000.0000000 4203000.0000000      25.8766970
  548000.0000000 4203000.0000000      25.7446306
  549000.0000000 4203000.0000000      25.6813843
  550000.0000000 4203000.0000000      25.5959737
  551000.0000000 4203000.0000000      25.3423153
  552000.0000000 4203000.0000000      25.1100525
  553000.0000000 4203000.0000000      24.8435325
  554000.0000000 4203000.0000000      24.5792945
  555000.0000000 4203000.0000000      24.6852284
  497000.0000000 4204000.0000000      33.0000000
  498000.0000000 4204000.0000000      32.9999999
  499000.0000000 4204000.0000000      33.0000000
  501000.0000000 4204000.0000000      33.0000000
  502000.0000000 4204000.0000000      33.0000000
  503000.0000000 4204000.0000000      33.0000000
  504000.0000000 4204000.0000000      32.9999999
  505000.0000000 4204000.0000000      32.9999999
  506000.0000000 4204000.0000000      32.9999998
  507000.0000000 4204000.0000000      32.9999996
  508000.0000000 4204000.0000000      32.9999993
  509000.0000000 4204000.0000000      32.9999988
  510000.0000000 4204000.0000000      32.9999980
  511000.0000000 4204000.0000000      32.9999967
  512000.0000000 4204000.0000000      32.9999947
  513000.0000000 4204000.0000000      32.9999920
  514000.0000000 4204000.0000000      32.9999878
  515000.0000000 4204000.0000000      32.9999826
  516000.0000000 4204000.0000000      32.9999770
  517000.0000000 4204000.0000000      32.8493811
  546000.0000000 4204000.0000000      25.7513657
  547000.0000000 4204000.0000000      25.7682892
  548000.0000000 4204000.0000000      25.5681442
  549000.0000000 4204000.0000000      25.5012480
  550000.0000000 4204000.0000000      25.3967452
  551000.0000000 4204000.0000000      25.1663609
  552000.0000000 4204000.0000000      24.9223482
  553000.0000000 4204000.0000000      24.6859590
  554000.0000000 4204000.0000000      24.4443707
  555000.0000000 4204000.0000000      24.2579908
  556000.0000000 4204000.0000000      24.2298899
  499000.0000000 4205000.0000000      33.0000000
  500000.0000000 4205000.0000000      33.0000000
  502000.0000000 4205000.0000000      33.0000000
  503000.0000000 4205000.0000000      33.0000000
  504000.0000000 4205000.0000000      32.9999999
  505000.0000000 4205000.0000000      32.9999999
  506000.0000000 4205000.0000000      32.9999998
  507000.0000000 4205000.0000000      32.9999996
  508000.0000000 4205000.0000000      32.9999993
  509000.0000000 4205000.0000000      32.9999989
  510000.0000000 4205000.0000000      32.9999981
  511000.0000000 4205000.0000000      32.9999970
  512000.0000000 4205000.0000000      32.9999954
  513000.0000000 4205000.0000000      32.9999930
  514000.0000000 4205000.0000000      32.9999901
  515000.0000000 4205000.0000000      32.9999862
  516000.0000000 4205000.0000000      32.8640758
  547000.0000000 4205000.0000000      25.4092789
  548000.0000000 4205000.0000000      25.2410839
  549000.0000000 4205000.0000000      25.2387638
  550000.0000000 4205000.0000000      25.1233449
  551000.0000000 4205000.0000000      24.9266289
  552000.0000000 4205000.0000000      24.7094284
  553000.0000000 4205000.0000000      24.4830301
  554000.0000000 4205000.0000000      24.2366076
  555000.0000000 4205000.0000000      24.0577342
  556000.0000000 4205000.0000000      24.0149026
  557000.0000000 4205000.0000000      22.6856184
  500000.0000000 4206000.0000000      33.0000000
  501000.0000000 4206000.0000000      33.0000000
  503000.0000000 4206000.0000000      33.0000000
  504000.0000000 4206000.0000000      32.9999999
  505000.0000000 4206000.0000000      32.9999999
  506000.0000000 4206000.0000000      32.9999998
  507000.0000000 4206000.0000000      32.9999996
  508000.0000000 4206000.0000000      32.9999993
  509000.0000000 4206000.0000000      32.9999989
  510000.0000000 4206000.0000000      32.9999983
  511000.0000000 4206000.0000000      32.9999973
  512000.0000000 4206000.0000000      32.9999959
  513000.0000000 4206000.0000000      32.9999942
  514000.0000000 4206000.0000000      32.9999916
  515000.0000000 4206000.0000000      32.8756895
  546000.0000000 4206000.0000000      25.1506380
  547000.0000000 4206000.0000000      25.0094541
  548000.0000000 4206000.0000000      25.0237477
  549000.0000000 4206000.0000000      24.9818827
  550000.0000000 4206000.0000000      24.8590110
  551000.0000000 4206000.0000000      24.7016945
  552000.0000000 4206000.0000000      24.5675712
  553000.0000000 4206000.0000000      24.3371967
  554000.0000000 4206000.0000000      23.9760783
  555000.0000000 4206000.0000000      23.7104529
  556000.0000000 4206000.0000000      23.1629531
  557000.0000000 4206000.0000000      22.1105674
  558000.0000000 4206000.0000000      21.1413469
  559000.0000000 4206000.0000000      20.6999035
  501000.0000000 4207000.0000000      33.0000000
  502000.0000000 4207000.0000000      33.0000000
  503000.0000000 4207000.0000000      32.9999999
  504000.0000000 4207000.0000000      32.9999999
  505000.0000000 4207000.0000000      32.9999999
  506000.0000000 4207000.0000000      32.9999998
  507000.0000000 4207000.0000000      32.9999996
  508000.0000000 4207000.0000000      32.9999994
  509000.0000000 4207000.0000000      32.9999990
  510000.0000000 4207000.0000000      32.9999984
  511000.0000000 4207000.0000000      32.9999978
  512000.0000000 4207000.0000000      32.9999966
  513000.0000000 4207000.0000000      32.9999951
  514000.0000000 4207000.0000000      32.8908531
  545000.0000000 4207000.0000000      24.9082166
  546000.0000000 4207000.0000000      24.7714434
  547000.0000000 4207000.0000000      24.8040875
  548000.0000000 4207000.0000000      24.8192011
  549000.0000000 4207000.0000000      24.7512849
  550000.0000000 4207000.0000000      24.6269844
  551000.0000000 4207000.0000000      24.5103470
  552000.0000000 4207000.0000000      24.5027823
  553000.0000000 4207000.0000000      24.1801561
  554000.0000000 4207000.0000000      23.6482446
  555000.0000000 4207000.0000000      23.1406283
  556000.0000000 4207000.0000000      22.4240254
  557000.0000000 4207000.0000000      21.4798964
  558000.0000000 4207000.0000000      20.7547274
  559000.0000000 4207000.0000000      20.1224739
  560000.0000000 4207000.0000000      19.5382675
  561000.0000000 4207000.0000000      19.1030921
  562000.0000000 4207000.0000000      18.8254839
  502000.0000000 4208000.0000000      33.0000000
  503000.0000000 4208000.0000000      32.9999999
  504000.0000000 4208000.0000000      32.9999999
  505000.0000000 4208000.0000000      32.9999998
  506000.0000000 4208000.0000000      32.9999998
  507000.0000000 4208000.0000000      32.9999996
  508000.0000000 4208000.0000000      32.9999994
  509000.0000000 4208000.0000000      32.9999991
  510000.0000000 4208000.0000000      32.9999986
  511000.0000000 4208000.0000000      32.9999980
  512000.0000000 4208000.0000000      32.9999971
  513000.0000000 4208000.0000000      32.8375966
  544000.0000000 4208000.0000000      24.7614335
  545000.0000000 4208000.0000000      24.6058655
  546000.0000000 4208000.0000000      24.6387291
  547000.0000000 4208000.0000000      24.6533243
  548000.0000000 4208000.0000000      24.6162043
  549000.0000000 4208000.0000000      24.5251509
  550000.0000000 4208000.0000000      24.3971341
  551000.0000000 4208000.0000000      24.2604709
  552000.0000000 4208000.0000000      24.0931892
  553000.0000000 4208000.0000000      23.7591543
  554000.0000000 4208000.0000000      23.2008422
  555000.0000000 4208000.0000000      22.6372413
  556000.0000000 4208000.0000000      22.1196054
  557000.0000000 4208000.0000000      21.4800156
  558000.0000000 4208000.0000000      20.7193765
  559000.0000000 4208000.0000000      19.9339562
  560000.0000000 4208000.0000000      19.2268552
  561000.0000000 4208000.0000000      18.6253064
  562000.0000000 4208000.0000000      18.1613510
  563000.0000000 4208000.0000000      17.6259631
  574000.0000000 4208000.0000000      10.9312580
  575000.0000000 4208000.0000000      10.5328909
  603000.0000000 4208000.0000000       0.8981017
  604000.0000000 4208000.0000000       0.7341970
  605000.0000000 4208000.0000000       0.5701665
  606000.0000000 4208000.0000000       0.5552397
  607000.0000000 4208000.0000000       0.5758585
  608000.0000000 4208000.0000000       0.6550141
  609000.0000000 4208000.0000000       0.7299695
  503000.0000000 4209000.0000000      32.9999999
  504000.0000000 4209000.0000000      32.9999999
  505000.0000000 4209000.0000000      32.9999998
  506000.0000000 4209000.0000000      32.9999997
  507000.0000000 4209000.0000000      32.9999996
  508000.0000000 4209000.0000000      32.9999995
  510000.0000000 4209000.0000000      32.9999988
  511000.0000000 4209000.0000000      32.9866166
  543000.0000000 4209000.0000000      24.7332795
  544000.0000000 4209000.0000000      24.4747669
  545000.0000000 4209000.0000000      24.4956558
  546000.0000000 4209000.0000000      24.5104076
  547000.0000000 4209000.0000000      24.4836382
  548000.0000000 4209000.0000000      24.4089588
  549000.0000000 4209000.0000000      24.2915422
  550000.0000000 4209000.0000000      24.1410693
  551000.0000000 4209000.0000000      23.9526536
  552000.0000000 4209000.0000000      23.6948509
  553000.0000000 4209000.0000000      23.2991336
  554000.0000000 4209000.0000000      22.7605877
  555000.0000000 4209000.0000000      22.2476086
  556000.0000000 4209000.0000000      21.9159654
  557000.0000000 4209000.0000000      21.2923108
  558000.0000000 4209000.0000000      20.4655776
  559000.0000000 4209000.0000000      19.6299594
  560000.0000000 4209000.0000000      18.8961342
  561000.0000000 4209000.0000000      18.2791345
  562000.0000000 4209000.0000000      17.7549017
  563000.0000000 4209000.0000000      17.3507170
  564000.0000000 4209000.0000000      16.7515042
  573000.0000000 4209000.0000000      10.7098079
  574000.0000000 4209000.0000000      10.2494015
  575000.0000000 4209000.0000000      10.0773815
  576000.0000000 4209000.0000000       9.7499283
  577000.0000000 4209000.0000000       9.0528306
  599000.0000000 4209000.0000000       1.0695729
  600000.0000000 4209000.0000000       0.8992421
  601000.0000000 4209000.0000000       0.7289114
  602000.0000000 4209000.0000000       0.5328808
  603000.0000000 4209000.0000000       0.3891989
  604000.0000000 4209000.0000000       0.3814486
  605000.0000000 4209000.0000000       0.3814643
  606000.0000000 4209000.0000000       0.3814657
  607000.0000000 4209000.0000000       0.3814657
  608000.0000000 4209000.0000000       0.3814658
  609000.0000000 4209000.0000000       0.3814657
  610000.0000000 4209000.0000000       0.3814657
  504000.0000000 4210000.0000000      32.9999999
  505000.0000000 4210000.0000000      32.9999998
  506000.0000000 4210000.0000000      32.9999997
  508000.0000000 4210000.0000000      32.9999995
  509000.0000000 4210000.0000000      32.9999993
  511000.0000000 4210000.0000000      32.7138408
  543000.0000000 4210000.0000000      24.4385848
  544000.0000000 4210000.0000000      24.3839584
  545000.0000000 4210000.0000000      24.3837136
  546000.0000000 4210000.0000000      24.3577754
  547000.0000000 4210000.0000000      24.2958911
  548000.0000000 4210000.0000000      24.1922490
  549000.0000000 4210000.0000000      24.0472866
  550000.0000000 4210000.0000000      23.8638994
  551000.0000000 4210000.0000000      23.6369107
  552000.0000000 4210000.0000000      23.3408903
  553000.0000000 4210000.0000000      22.9383588
  554000.0000000 4210000.0000000      22.4797062
  555000.0000000 4210000.0000000      22.0781836
  556000.0000000 4210000.0000000      21.6739123
  557000.0000000 4210000.0000000      20.9896367
  558000.0000000 4210000.0000000      20.1102575
  559000.0000000 4210000.0000000      19.2557614
  560000.0000000 4210000.0000000      18.5587822
  561000.0000000 4210000.0000000      17.9789090
  562000.0000000 4210000.0000000      17.4152937
  563000.0000000 4210000.0000000      16.9175417
  564000.0000000 4210000.0000000      16.5598504
  572000.0000000 4210000.0000000      11.1436964
  573000.0000000 4210000.0000000      10.6783603
  574000.0000000 4210000.0000000      10.3828960
  575000.0000000 4210000.0000000      10.1115315
  576000.0000000 4210000.0000000       9.7429397
  577000.0000000 4210000.0000000       9.2907414
  578000.0000000 4210000.0000000       8.7056749
  579000.0000000 4210000.0000000       8.1450050
  596000.0000000 4210000.0000000       1.2868109
  597000.0000000 4210000.0000000       1.0236829
  598000.0000000 4210000.0000000       0.7605549
  599000.0000000 4210000.0000000       0.5057016
  600000.0000000 4210000.0000000       0.4742389
  601000.0000000 4210000.0000000       0.4469911
  602000.0000000 4210000.0000000       0.3775985
  603000.0000000 4210000.0000000       0.3764664
  604000.0000000 4210000.0000000       0.2878853
  605000.0000000 4210000.0000000       0.2325657
  606000.0000000 4210000.0000000       0.1678009
  607000.0000000 4210000.0000000       0.2251498
  608000.0000000 4210000.0000000       0.3445163
  609000.0000000 4210000.0000000       0.3644443
  610000.0000000 4210000.0000000       0.3814657
  505000.0000000 4211000.0000000      32.9999998
  506000.0000000 4211000.0000000      32.9999997
  507000.0000000 4211000.0000000      32.9999997
  543000.0000000 4211000.0000000      24.2465152
  544000.0000000 4211000.0000000      24.3011022
  545000.0000000 4211000.0000000      24.2545673
  546000.0000000 4211000.0000000      24.1933726
  547000.0000000 4211000.0000000      24.0989581
