  550535.6875000 4148894.7500000      33.5000000
  521990.8750000 4135288.0000000      33.5000000
  508827.7187500 4146232.5000000      33.5000000
  496847.7812500 4168122.0000000      33.5000000
  484424.1250000 4192229.7500000      33.5000000
  480430.8125000 4205541.0000000      33.5000000
  496256.1875000 4215894.0000000      33.5000000
  508088.2187500 4218112.5000000      33.5000000
  514300.0312500 4214563.0000000      33.5000000
  522138.7500000 4205836.5000000      33.5000000
  533231.3125000 4196962.5000000      33.5000000
  541070.0625000 4194744.0000000      33.5000000
  543584.3750000 4199181.0000000      25.0000000
  544619.6250000 4203470.0000000      25.0000000
  546246.5625000 4207168.0000000      25.0000000
  548021.3750000 4209534.0000000      25.0000000
  550683.5625000 4211457.0000000      25.0000000
  553789.5000000 4212788.0000000      25.0000000
  558374.3750000 4213084.0000000      25.0000000
  560445.0000000 4213379.5000000      25.0000000
  563255.1250000 4213527.5000000      23.0000000
  565325.7500000 4213823.5000000      20.8600000
  568283.7500000 4213823.5000000      15.0000000
  571537.5625000 4213231.5000000      14.0000000
  570650.1250000 4211309.0000000      14.0000000
  568875.3125000 4209682.0000000      15.0000000
  564734.1250000 4206576.0000000      22.5000000
  563550.9375000 4203174.5000000      22.5000000
  563698.8125000 4196519.0000000      32.0000000
  565917.3125000 4192082.0000000      32.0000000
  569614.8125000 4179214.5000000      25.0000000
  581446.8750000 4167530.2500000      25.0000000
  598307.5625000 4153479.7500000      25.0000000
  601857.1250000 4140316.5000000      25.0000000
  591208.3125000 4133513.2500000      25.0000000
  570945.9375000 4137950.2500000      25.0000000
  561184.5000000 4144901.5000000      25.0000000
  580115.7500000 4206280.5000000      16.0000000
  589581.3750000 4206428.5000000       8.0000000
  601265.5625000 4202878.5000000       0.0000000
  610139.5625000 4198293.5000000       0.4000000
  615316.1250000 4186609.5000000       0.4000000
  628035.5625000 4177735.5000000       0.4000000
  642234.0000000 4176552.2500000       0.4000000
  649924.8125000 4178623.0000000       0.4000000
  655692.9375000 4185574.2500000       0.4000000
  659094.6250000 4201991.0000000       0.4000000
  650368.5000000 4219591.5000000       0.0000000
  656581.1250000 4269508.5000000       0.0000000
  673737.5625000 4204580.0000000       0.4000000
  651108.8125000 4242147.0000000       0.0000000
  649481.8750000 4268177.5000000       0.0000000
  633656.5000000 4278974.5000000       0.0000000
  612802.5625000 4273502.0000000       0.0000000
  609548.7500000 4257972.5000000       0.0000000
  606294.9375000 4245401.0000000       0.0000000
  594758.6875000 4232829.0000000       0.0000000
  584553.5625000 4236970.5000000       0.0000000
  576419.0000000 4231942.0000000       0.0000000
  564439.8125000 4231868.5000000       0.0000000
  553199.3750000 4233643.0000000       0.0000000
  538705.1250000 4235418.0000000       0.0000000
  531014.2500000 4234530.5000000       0.0000000
  528943.6875000 4229206.0000000       0.0000000
  533824.3750000 4212641.5000000      25.0000000
  537817.6875000 4208204.5000000      25.0000000
  547589.1875000 4185895.0000000      32.0000000
  548369.0625000 4202163.5000000      25.0000000
  563003.3125000 4212875.5000000      23.0000000
  575710.0000000 4209923.0000000       8.9000000
  585618.5000000 4213744.0000000       8.0000000
  594793.0000000 4211486.0000000       1.0000000
  551856.9375000 4207637.0000000      25.0000000
  558049.6875000 4212790.0000000      25.0000000
  552132.1250000 4214295.0000000      25.0000000
  598553.5000000 4211976.5000000       1.0000000
  601689.1875000 4214230.0000000       1.6500000
  605107.5625000 4208565.0000000       0.8600000
  610662.3125000 4216009.0000000       0.1350000
  613659.1250000 4218460.5000000       0.1600000
  614941.1250000 4223229.5000000       0.0000000
  617843.0000000 4226970.5000000       0.0000000
  623842.6250000 4226928.0000000       0.0000000
  648489.1875000 4185452.2500000       0.3700000
  649712.1875000 4182604.0000000       0.3700000
  620143.3750000 4211300.0000000       0.5000000
  626445.6250000 4214616.0000000       0.0250000
  568071.4375000 4212980.5000000      20.8600000
  568018.0625000 4212463.5000000      20.8600000
  568118.9375000 4213363.0000000      20.8600000
