  591000.0000000 4149000.0000000      21.4850184
  592000.0000000 4149000.0000000      21.4932016
  593000.0000000 4149000.0000000      21.4918044
  522000.0000000 4150000.0000000      10.8228979
  523000.0000000 4150000.0000000      10.8249059
  525000.0000000 4150000.0000000      10.8515058
  526000.0000000 4150000.0000000      10.8632760
  527000.0000000 4150000.0000000      10.8720483
  528000.0000000 4150000.0000000      10.8789235
  529000.0000000 4150000.0000000      10.8827352
  530000.0000000 4150000.0000000      10.8858623
  531000.0000000 4150000.0000000      10.8874130
  532000.0000000 4150000.0000000      10.8876877
  533000.0000000 4150000.0000000      10.8877792
  534000.0000000 4150000.0000000      10.8914731
  535000.0000000 4150000.0000000      11.2032624
  568000.0000000 4150000.0000000      21.4533711
  569000.0000000 4150000.0000000      21.6916327
  570000.0000000 4150000.0000000      21.7391232
  572000.0000000 4150000.0000000      21.7413721
  573000.0000000 4150000.0000000      21.7458478
  574000.0000000 4150000.0000000      21.7535458
  575000.0000000 4150000.0000000      21.7623765
  576000.0000000 4150000.0000000      21.7555683
  577000.0000000 4150000.0000000      21.7013446
  578000.0000000 4150000.0000000      21.6498724
  579000.0000000 4150000.0000000      21.5422103
  580000.0000000 4150000.0000000      21.4278484
  581000.0000000 4150000.0000000      21.4473344
  582000.0000000 4150000.0000000      21.4555178
  583000.0000000 4150000.0000000      21.4589543
  584000.0000000 4150000.0000000      21.4598597
  585000.0000000 4150000.0000000      21.4598458
  586000.0000000 4150000.0000000      21.4599003
  587000.0000000 4150000.0000000      21.4599003
  588000.0000000 4150000.0000000      21.4630257
  522000.0000000 4151000.0000000      10.8098136
  523000.0000000 4151000.0000000      10.8196099
  524000.0000000 4151000.0000000      10.8293936
  525000.0000000 4151000.0000000      10.8416386
  526000.0000000 4151000.0000000      10.8531215
  527000.0000000 4151000.0000000      10.8623845
  528000.0000000 4151000.0000000      10.8705082
  529000.0000000 4151000.0000000      10.8764008
  530000.0000000 4151000.0000000      10.8800518
  531000.0000000 4151000.0000000      10.8823463
  532000.0000000 4151000.0000000      10.8844295
  533000.0000000 4151000.0000000      10.8851606
  534000.0000000 4151000.0000000      10.8852719
  535000.0000000 4151000.0000000      10.8851643
  536000.0000000 4151000.0000000      10.8859101
  537000.0000000 4151000.0000000      11.1162528
  566000.0000000 4151000.0000000      20.9110742
  567000.0000000 4151000.0000000      21.4387255
  568000.0000000 4151000.0000000      21.7386406
  569000.0000000 4151000.0000000      21.7414385
  570000.0000000 4151000.0000000      21.7426147
  571000.0000000 4151000.0000000      21.7432792
  572000.0000000 4151000.0000000      21.7434757
  573000.0000000 4151000.0000000      21.7443350
  574000.0000000 4151000.0000000      21.7627527
  575000.0000000 4151000.0000000      21.7612068
  576000.0000000 4151000.0000000      21.7566302
  577000.0000000 4151000.0000000      21.7477466
  578000.0000000 4151000.0000000      21.7258556
  579000.0000000 4151000.0000000      21.5744341
  580000.0000000 4151000.0000000      21.4544955
  581000.0000000 4151000.0000000      21.4465631
  582000.0000000 4151000.0000000      21.4504757
  583000.0000000 4151000.0000000      21.4518556
  584000.0000000 4151000.0000000      21.4560626
  588000.0000000 4151000.0000000      21.5182375
  521000.0000000 4152000.0000000      10.8145454
  522000.0000000 4152000.0000000      10.8144271
  523000.0000000 4152000.0000000      10.8176806
  524000.0000000 4152000.0000000      10.8255854
  525000.0000000 4152000.0000000      10.8355903
  526000.0000000 4152000.0000000      10.8448695
  527000.0000000 4152000.0000000      10.8554036
  528000.0000000 4152000.0000000      10.8626785
  529000.0000000 4152000.0000000      10.8696980
  530000.0000000 4152000.0000000      10.8738280
  531000.0000000 4152000.0000000      10.8780184
  532000.0000000 4152000.0000000      10.8802961
  533000.0000000 4152000.0000000      10.8818679
  534000.0000000 4152000.0000000      10.8831137
  535000.0000000 4152000.0000000      10.8832626
  536000.0000000 4152000.0000000      10.8832374
  537000.0000000 4152000.0000000      10.8830694
  538000.0000000 4152000.0000000      10.8836133
  539000.0000000 4152000.0000000      11.0292433
  566000.0000000 4152000.0000000      21.5112030
  567000.0000000 4152000.0000000      21.7352822
  568000.0000000 4152000.0000000      21.7382944
  569000.0000000 4152000.0000000      21.7414677
  570000.0000000 4152000.0000000      21.7431021
  571000.0000000 4152000.0000000      21.7434757
  572000.0000000 4152000.0000000      21.7448904
  573000.0000000 4152000.0000000      21.7625522
  574000.0000000 4152000.0000000      21.7651242
  575000.0000000 4152000.0000000      21.7622695
  576000.0000000 4152000.0000000      21.7560483
  577000.0000000 4152000.0000000      21.7580334
  578000.0000000 4152000.0000000      21.7594630
  579000.0000000 4152000.0000000      21.6417175
  580000.0000000 4152000.0000000      21.4558247
  581000.0000000 4152000.0000000      21.4519420
  582000.0000000 4152000.0000000      21.4492194
  583000.0000000 4152000.0000000      21.4516868
  520000.0000000 4153000.0000000      10.8233977
  521000.0000000 4153000.0000000      10.8221370
  522000.0000000 4153000.0000000      10.8214708
  523000.0000000 4153000.0000000      10.8223980
  524000.0000000 4153000.0000000      10.8265890
  525000.0000000 4153000.0000000      10.8326172
  526000.0000000 4153000.0000000      10.8410029
  527000.0000000 4153000.0000000      10.8493264
  528000.0000000 4153000.0000000      10.8565437
  529000.0000000 4153000.0000000      10.8635088
  530000.0000000 4153000.0000000      10.8688848
  531000.0000000 4153000.0000000      10.8728820
  532000.0000000 4153000.0000000      10.8762343
  533000.0000000 4153000.0000000      10.8786928
  534000.0000000 4153000.0000000      10.8800708
  535000.0000000 4153000.0000000      10.8811641
  536000.0000000 4153000.0000000      10.8817784
  537000.0000000 4153000.0000000      10.8818103
  538000.0000000 4153000.0000000      10.8817412
  539000.0000000 4153000.0000000      10.8815767
  540000.0000000 4153000.0000000      10.8816687
  541000.0000000 4153000.0000000      10.9422337
  542000.0000000 4153000.0000000      11.2540229
  543000.0000000 4153000.0000000      11.5658122
  566000.0000000 4153000.0000000      21.7179754
  567000.0000000 4153000.0000000      21.7339517
  568000.0000000 4153000.0000000      21.7387601
  569000.0000000 4153000.0000000      21.7411647
  570000.0000000 4153000.0000000      21.7433090
  571000.0000000 4153000.0000000      21.7443657
  572000.0000000 4153000.0000000      21.7493595
  573000.0000000 4153000.0000000      21.7615850
  574000.0000000 4153000.0000000      21.7761007
  575000.0000000 4153000.0000000      21.7720017
  576000.0000000 4153000.0000000      21.7566508
  577000.0000000 4153000.0000000      21.7518992
  578000.0000000 4153000.0000000      21.7554874
  579000.0000000 4153000.0000000      21.6765856
  580000.0000000 4153000.0000000      21.5031144
  581000.0000000 4153000.0000000      21.4525135
  582000.0000000 4153000.0000000      21.4522855
  583000.0000000 4153000.0000000      21.4542278
  520000.0000000 4154000.0000000      10.8392671
  521000.0000000 4154000.0000000      10.8354538
  522000.0000000 4154000.0000000      10.8309802
  523000.0000000 4154000.0000000      10.8306280
  524000.0000000 4154000.0000000      10.8318819
  525000.0000000 4154000.0000000      10.8357919
  526000.0000000 4154000.0000000      10.8409534
  527000.0000000 4154000.0000000      10.8467809
  528000.0000000 4154000.0000000      10.8535918
  529000.0000000 4154000.0000000      10.8590993
  530000.0000000 4154000.0000000      10.8644996
  531000.0000000 4154000.0000000      10.8691603
  532000.0000000 4154000.0000000      10.8726238
  533000.0000000 4154000.0000000      10.8753919
  534000.0000000 4154000.0000000      10.8774442
  535000.0000000 4154000.0000000      10.8789141
  536000.0000000 4154000.0000000      10.8798159
  537000.0000000 4154000.0000000      10.8804468
  538000.0000000 4154000.0000000      10.8808265
  539000.0000000 4154000.0000000      10.8808548
  540000.0000000 4154000.0000000      10.8807855
  541000.0000000 4154000.0000000      10.8806981
  542000.0000000 4154000.0000000      10.8806445
  543000.0000000 4154000.0000000      11.2223112
  566000.0000000 4154000.0000000      21.7182995
  567000.0000000 4154000.0000000      21.7317506
  568000.0000000 4154000.0000000      21.7328912
  569000.0000000 4154000.0000000      21.7382423
  570000.0000000 4154000.0000000      21.7353380
  571000.0000000 4154000.0000000      21.7399069
  572000.0000000 4154000.0000000      21.7431942
  573000.0000000 4154000.0000000      21.7602226
  574000.0000000 4154000.0000000      21.7834532
  575000.0000000 4154000.0000000      21.7801990
  576000.0000000 4154000.0000000      21.7631470
  577000.0000000 4154000.0000000      21.7556655
  578000.0000000 4154000.0000000      21.7550214
  579000.0000000 4154000.0000000      21.6484166
  580000.0000000 4154000.0000000      21.4941234
  581000.0000000 4154000.0000000      21.4526448
  582000.0000000 4154000.0000000      21.4526448
  583000.0000000 4154000.0000000      21.5301640
  519000.0000000 4155000.0000000      10.8934120
  520000.0000000 4155000.0000000      10.8654475
  521000.0000000 4155000.0000000      10.8534958
  522000.0000000 4155000.0000000      10.8449892
  523000.0000000 4155000.0000000      10.8419476
  524000.0000000 4155000.0000000      10.8395677
  525000.0000000 4155000.0000000      10.8413533
  526000.0000000 4155000.0000000      10.8433583
  527000.0000000 4155000.0000000      10.8479340
  528000.0000000 4155000.0000000      10.8521897
  529000.0000000 4155000.0000000      10.8574517
  530000.0000000 4155000.0000000      10.8618313
  531000.0000000 4155000.0000000      10.8659467
  532000.0000000 4155000.0000000      10.8695283
  533000.0000000 4155000.0000000      10.8725475
  534000.0000000 4155000.0000000      10.8749198
  535000.0000000 4155000.0000000      10.8766706
  536000.0000000 4155000.0000000      10.8780130
  537000.0000000 4155000.0000000      10.8789944
  538000.0000000 4155000.0000000      10.8795943
  539000.0000000 4155000.0000000      10.8800132
  540000.0000000 4155000.0000000      10.8802698
  541000.0000000 4155000.0000000      10.8804010
  542000.0000000 4155000.0000000      10.8804440
  543000.0000000 4155000.0000000      11.2588665
  566000.0000000 4155000.0000000      21.7190906
  567000.0000000 4155000.0000000      21.7285318
  568000.0000000 4155000.0000000      21.7299732
  569000.0000000 4155000.0000000      21.7260323
  570000.0000000 4155000.0000000      21.7212346
  571000.0000000 4155000.0000000      21.7216386
  572000.0000000 4155000.0000000      21.7263655
  573000.0000000 4155000.0000000      21.7448856
  574000.0000000 4155000.0000000      21.7630634
  575000.0000000 4155000.0000000      21.7675709
  576000.0000000 4155000.0000000      21.7609326
  577000.0000000 4155000.0000000      21.7553610
  578000.0000000 4155000.0000000      21.7545366
  579000.0000000 4155000.0000000      21.6460163
  580000.0000000 4155000.0000000      21.5563594
  581000.0000000 4155000.0000000      21.5167543
  582000.0000000 4155000.0000000      21.5675318
  518000.0000000 4156000.0000000      10.9220964
  519000.0000000 4156000.0000000      10.9220964
  520000.0000000 4156000.0000000      10.8934475
  521000.0000000 4156000.0000000      10.8769960
  522000.0000000 4156000.0000000      10.8647007
  523000.0000000 4156000.0000000      10.8565124
  524000.0000000 4156000.0000000      10.8514967
  525000.0000000 4156000.0000000      10.8493937
  526000.0000000 4156000.0000000      10.8494683
  527000.0000000 4156000.0000000      10.8512273
  528000.0000000 4156000.0000000      10.8538757
  529000.0000000 4156000.0000000      10.8574312
  530000.0000000 4156000.0000000      10.8607468
  531000.0000000 4156000.0000000      10.8646022
  532000.0000000 4156000.0000000      10.8677130
  533000.0000000 4156000.0000000      10.8704553
  534000.0000000 4156000.0000000      10.8729308
  535000.0000000 4156000.0000000      10.8748500
  536000.0000000 4156000.0000000      10.8763742
  537000.0000000 4156000.0000000      10.8775577
  538000.0000000 4156000.0000000      10.8784979
  539000.0000000 4156000.0000000      10.8792253
  540000.0000000 4156000.0000000      10.8797348
  541000.0000000 4156000.0000000      10.8800344
  542000.0000000 4156000.0000000      10.8801804
  543000.0000000 4156000.0000000      11.2925878
  566000.0000000 4156000.0000000      21.7208871
  567000.0000000 4156000.0000000      21.7260273
  568000.0000000 4156000.0000000      21.7298526
  569000.0000000 4156000.0000000      21.7292333
  570000.0000000 4156000.0000000      21.7192353
  571000.0000000 4156000.0000000      21.7045598
  572000.0000000 4156000.0000000      21.7032523
  573000.0000000 4156000.0000000      21.7237074
  574000.0000000 4156000.0000000      21.7433185
  575000.0000000 4156000.0000000      21.7507084
  576000.0000000 4156000.0000000      21.7522458
  577000.0000000 4156000.0000000      21.7512565
  578000.0000000 4156000.0000000      21.7518463
  518000.0000000 4157000.0000000      10.9601949
  519000.0000000 4157000.0000000      10.9388272
  520000.0000000 4157000.0000000      10.9202003
  521000.0000000 4157000.0000000      10.9016677
  522000.0000000 4157000.0000000      10.8858923
  523000.0000000 4157000.0000000      10.8742981
  524000.0000000 4157000.0000000      10.8661205
  525000.0000000 4157000.0000000      10.8602320
  526000.0000000 4157000.0000000      10.8579454
  527000.0000000 4157000.0000000      10.8567385
  528000.0000000 4157000.0000000      10.8579047
  529000.0000000 4157000.0000000      10.8593965
  530000.0000000 4157000.0000000      10.8618524
  531000.0000000 4157000.0000000      10.8643993
  532000.0000000 4157000.0000000      10.8669148
  533000.0000000 4157000.0000000      10.8695480
  534000.0000000 4157000.0000000      10.8716276
  535000.0000000 4157000.0000000      10.8735022
  536000.0000000 4157000.0000000      10.8751567
  537000.0000000 4157000.0000000      10.8764869
  538000.0000000 4157000.0000000      10.8776007
  539000.0000000 4157000.0000000      10.8785505
  540000.0000000 4157000.0000000      10.8792881
  541000.0000000 4157000.0000000      10.8797827
  542000.0000000 4157000.0000000      10.8800240
  543000.0000000 4157000.0000000      11.3572295
  566000.0000000 4157000.0000000      21.7049651
  567000.0000000 4157000.0000000      21.7224262
  568000.0000000 4157000.0000000      21.7318891
  569000.0000000 4157000.0000000      21.7392715
  570000.0000000 4157000.0000000      21.7270555
  571000.0000000 4157000.0000000      21.6990142
  572000.0000000 4157000.0000000      21.6869868
  573000.0000000 4157000.0000000      21.7108810
  574000.0000000 4157000.0000000      21.7302444
  575000.0000000 4157000.0000000      21.7395110
  576000.0000000 4157000.0000000      21.7451653
  577000.0000000 4157000.0000000      21.7487631
  578000.0000000 4157000.0000000      21.7489603
  580000.0000000 4157000.0000000      21.7200181
  581000.0000000 4157000.0000000      21.7187245
  517000.0000000 4158000.0000000      10.9766976
  518000.0000000 4158000.0000000      10.9698697
  519000.0000000 4158000.0000000      10.9567054
  520000.0000000 4158000.0000000      10.9412101
  521000.0000000 4158000.0000000      10.9237435
  522000.0000000 4158000.0000000      10.9076013
  523000.0000000 4158000.0000000      10.8939442
  524000.0000000 4158000.0000000      10.8821739
  525000.0000000 4158000.0000000      10.8737019
  526000.0000000 4158000.0000000      10.8685476
  527000.0000000 4158000.0000000      10.8648357
  528000.0000000 4158000.0000000      10.8639421
  529000.0000000 4158000.0000000      10.8633748
  530000.0000000 4158000.0000000      10.8645581
  531000.0000000 4158000.0000000      10.8656944
  532000.0000000 4158000.0000000      10.8677024
  533000.0000000 4158000.0000000      10.8694821
  534000.0000000 4158000.0000000      10.8712285
  535000.0000000 4158000.0000000      10.8729914
  536000.0000000 4158000.0000000      10.8744672
  537000.0000000 4158000.0000000      10.8757544
  538000.0000000 4158000.0000000      10.8770755
  539000.0000000 4158000.0000000      10.8782344
  540000.0000000 4158000.0000000      10.8791532
  541000.0000000 4158000.0000000      10.8797914
  542000.0000000 4158000.0000000      10.8801087
  543000.0000000 4158000.0000000      11.2956214
  562000.0000000 4158000.0000000      21.5967079
  563000.0000000 4158000.0000000      21.6068495
  564000.0000000 4158000.0000000      21.6305735
  565000.0000000 4158000.0000000      21.6545389
  566000.0000000 4158000.0000000      21.6924483
  567000.0000000 4158000.0000000      21.7127537
  568000.0000000 4158000.0000000      21.7362369
  569000.0000000 4158000.0000000      21.7677588
  570000.0000000 4158000.0000000      21.7393532
  571000.0000000 4158000.0000000      21.7165803
  572000.0000000 4158000.0000000      21.7046391
  573000.0000000 4158000.0000000      21.7143910
  574000.0000000 4158000.0000000      21.7242947
  575000.0000000 4158000.0000000      21.7326748
  576000.0000000 4158000.0000000      21.7397639
  577000.0000000 4158000.0000000      21.7463131
  578000.0000000 4158000.0000000      21.7470751
  579000.0000000 4158000.0000000      21.7464589
  580000.0000000 4158000.0000000      21.7434280
  581000.0000000 4158000.0000000      21.7321302
  517000.0000000 4159000.0000000      10.9836448
  518000.0000000 4159000.0000000      10.9765647
  519000.0000000 4159000.0000000      10.9671611
  520000.0000000 4159000.0000000      10.9551335
  521000.0000000 4159000.0000000      10.9409833
  522000.0000000 4159000.0000000      10.9259885
  523000.0000000 4159000.0000000      10.9117195
  524000.0000000 4159000.0000000      10.8992351
  525000.0000000 4159000.0000000      10.8884657
  526000.0000000 4159000.0000000      10.8810876
  527000.0000000 4159000.0000000      10.8749904
  528000.0000000 4159000.0000000      10.8715487
  529000.0000000 4159000.0000000      10.8694376
  530000.0000000 4159000.0000000      10.8688884
  531000.0000000 4159000.0000000      10.8688101
  532000.0000000 4159000.0000000      10.8696941
  533000.0000000 4159000.0000000      10.8705334
  534000.0000000 4159000.0000000      10.8719760
  535000.0000000 4159000.0000000      10.8732324
  536000.0000000 4159000.0000000      10.8743971
  537000.0000000 4159000.0000000      10.8758064
  538000.0000000 4159000.0000000      10.8771487
  539000.0000000 4159000.0000000      10.8783984
  540000.0000000 4159000.0000000      10.8794426
  541000.0000000 4159000.0000000      10.8801824
  542000.0000000 4159000.0000000      10.8805657
  543000.0000000 4159000.0000000      10.9301596
  560000.0000000 4159000.0000000      21.5496303
  561000.0000000 4159000.0000000      21.5688113
  562000.0000000 4159000.0000000      21.5801020
  563000.0000000 4159000.0000000      21.5974781
  564000.0000000 4159000.0000000      21.6172092
  565000.0000000 4159000.0000000      21.6431266
  566000.0000000 4159000.0000000      21.6774677
  567000.0000000 4159000.0000000      21.7008963
  568000.0000000 4159000.0000000      21.7232644
  569000.0000000 4159000.0000000      21.7433894
  570000.0000000 4159000.0000000      21.7378694
  571000.0000000 4159000.0000000      21.7235964
  572000.0000000 4159000.0000000      21.7144109
  573000.0000000 4159000.0000000      21.7150059
  574000.0000000 4159000.0000000      21.7203307
  575000.0000000 4159000.0000000      21.7267389
  576000.0000000 4159000.0000000      21.7319107
  577000.0000000 4159000.0000000      21.7395213
  578000.0000000 4159000.0000000      21.7383435
  579000.0000000 4159000.0000000      21.7333028
  516000.0000000 4160000.0000000      10.9826255
  517000.0000000 4160000.0000000      10.9823430
  518000.0000000 4160000.0000000      10.9791217
  519000.0000000 4160000.0000000      10.9723172
  520000.0000000 4160000.0000000      10.9631627
  521000.0000000 4160000.0000000      10.9517976
  522000.0000000 4160000.0000000      10.9393937
  523000.0000000 4160000.0000000      10.9261825
  524000.0000000 4160000.0000000      10.9138445
  525000.0000000 4160000.0000000      10.9026184
  526000.0000000 4160000.0000000      10.8933720
  527000.0000000 4160000.0000000      10.8859476
  528000.0000000 4160000.0000000      10.8807015
  529000.0000000 4160000.0000000      10.8769576
  530000.0000000 4160000.0000000      10.8745444
  531000.0000000 4160000.0000000      10.8733552
  532000.0000000 4160000.0000000      10.8729755
  533000.0000000 4160000.0000000      10.8730090
  534000.0000000 4160000.0000000      10.8736567
  535000.0000000 4160000.0000000      10.8743385
  536000.0000000 4160000.0000000      10.8753654
  537000.0000000 4160000.0000000      10.8765790
  538000.0000000 4160000.0000000      10.8778528
  539000.0000000 4160000.0000000      10.8791567
  540000.0000000 4160000.0000000      10.8804436
  541000.0000000 4160000.0000000      10.8815703
  542000.0000000 4160000.0000000      10.8823412
  543000.0000000 4160000.0000000      10.8867432
  557000.0000000 4160000.0000000      21.2362692
  558000.0000000 4160000.0000000      21.5025528
  559000.0000000 4160000.0000000      21.5193322
  560000.0000000 4160000.0000000      21.5388852
  561000.0000000 4160000.0000000      21.5635656
  562000.0000000 4160000.0000000      21.5737502
  563000.0000000 4160000.0000000      21.5905513
  564000.0000000 4160000.0000000      21.6067490
  565000.0000000 4160000.0000000      21.6286264
  566000.0000000 4160000.0000000      21.6618983
  567000.0000000 4160000.0000000      21.6871578
  568000.0000000 4160000.0000000      21.7029683
  569000.0000000 4160000.0000000      21.7187735
  570000.0000000 4160000.0000000      21.7229646
  571000.0000000 4160000.0000000      21.7181194
  572000.0000000 4160000.0000000      21.7116184
  573000.0000000 4160000.0000000      21.7117734
  574000.0000000 4160000.0000000      21.7153366
  575000.0000000 4160000.0000000      21.7199189
  576000.0000000 4160000.0000000      21.7247305
  516000.0000000 4161000.0000000      10.9406598
  517000.0000000 4161000.0000000      10.9807165
  518000.0000000 4161000.0000000      10.9782068
  519000.0000000 4161000.0000000      10.9737758
  520000.0000000 4161000.0000000      10.9671078
  521000.0000000 4161000.0000000      10.9584834
  522000.0000000 4161000.0000000      10.9483161
  523000.0000000 4161000.0000000      10.9373613
  524000.0000000 4161000.0000000      10.9258814
  525000.0000000 4161000.0000000      10.9153905
  526000.0000000 4161000.0000000      10.9056376
  527000.0000000 4161000.0000000      10.8970889
  528000.0000000 4161000.0000000      10.8905506
  529000.0000000 4161000.0000000      10.8852933
  530000.0000000 4161000.0000000      10.8816202
  531000.0000000 4161000.0000000      10.8789967
  532000.0000000 4161000.0000000      10.8774313
  533000.0000000 4161000.0000000      10.8765886
  534000.0000000 4161000.0000000      10.8764231
  535000.0000000 4161000.0000000      10.8764805
  536000.0000000 4161000.0000000      10.8772066
  537000.0000000 4161000.0000000      10.8781792
  538000.0000000 4161000.0000000      10.8793784
  539000.0000000 4161000.0000000      10.8808361
  540000.0000000 4161000.0000000      10.8824596
  541000.0000000 4161000.0000000      10.8840664
  542000.0000000 4161000.0000000      10.8859136
  543000.0000000 4161000.0000000      10.8898391
  544000.0000000 4161000.0000000      11.1718773
  556000.0000000 4161000.0000000      21.2588722
  557000.0000000 4161000.0000000      21.4696512
  558000.0000000 4161000.0000000      21.4814608
  559000.0000000 4161000.0000000      21.4994197
  560000.0000000 4161000.0000000      21.5198704
  561000.0000000 4161000.0000000      21.5447033
  562000.0000000 4161000.0000000      21.5624816
  563000.0000000 4161000.0000000      21.5755078
  564000.0000000 4161000.0000000      21.5841988
  565000.0000000 4161000.0000000      21.6015984
  566000.0000000 4161000.0000000      21.6328336
  567000.0000000 4161000.0000000      21.6606046
  568000.0000000 4161000.0000000      21.6808082
  569000.0000000 4161000.0000000      21.6959115
  570000.0000000 4161000.0000000      21.7036761
  571000.0000000 4161000.0000000      21.7022733
  572000.0000000 4161000.0000000      21.7037320
  573000.0000000 4161000.0000000      21.7053144
  574000.0000000 4161000.0000000      21.7080147
  575000.0000000 4161000.0000000      21.7105724
  576000.0000000 4161000.0000000      21.7135965
  515000.0000000 4162000.0000000      10.9813742
  516000.0000000 4162000.0000000      10.9810896
  517000.0000000 4162000.0000000      10.9796746
  518000.0000000 4162000.0000000      10.9775320
  519000.0000000 4162000.0000000      10.9739735
  520000.0000000 4162000.0000000      10.9688250
  521000.0000000 4162000.0000000      10.9621149
  522000.0000000 4162000.0000000      10.9541879
  523000.0000000 4162000.0000000      10.9451275
  524000.0000000 4162000.0000000      10.9354112
  525000.0000000 4162000.0000000      10.9255377
  526000.0000000 4162000.0000000      10.9162527
  527000.0000000 4162000.0000000      10.9077450
  528000.0000000 4162000.0000000      10.9003679
  529000.0000000 4162000.0000000      10.8941276
  530000.0000000 4162000.0000000      10.8893390
  531000.0000000 4162000.0000000      10.8856639
  532000.0000000 4162000.0000000      10.8829946
  533000.0000000 4162000.0000000      10.8812729
  534000.0000000 4162000.0000000      10.8803359
  535000.0000000 4162000.0000000      10.8798034
  536000.0000000 4162000.0000000      10.8801789
  537000.0000000 4162000.0000000      10.8809909
  538000.0000000 4162000.0000000      10.8822173
  539000.0000000 4162000.0000000      10.8838997
  540000.0000000 4162000.0000000      10.8859604
  541000.0000000 4162000.0000000      10.8882395
  542000.0000000 4162000.0000000      10.8913768
  543000.0000000 4162000.0000000      10.8961932
  544000.0000000 4162000.0000000      10.8989871
  555000.0000000 4162000.0000000      21.2740403
  556000.0000000 4162000.0000000      21.4603937
  557000.0000000 4162000.0000000      21.4619019
  558000.0000000 4162000.0000000      21.4736241
  559000.0000000 4162000.0000000      21.4907101
  560000.0000000 4162000.0000000      21.5114941
  561000.0000000 4162000.0000000      21.5305017
  562000.0000000 4162000.0000000      21.5476550
  563000.0000000 4162000.0000000      21.5602058
  564000.0000000 4162000.0000000      21.5661159
  565000.0000000 4162000.0000000      21.5789252
  566000.0000000 4162000.0000000      21.6070940
  567000.0000000 4162000.0000000      21.6331280
  568000.0000000 4162000.0000000      21.6550409
  569000.0000000 4162000.0000000      21.6716590
  570000.0000000 4162000.0000000      21.6806316
  571000.0000000 4162000.0000000      21.6880211
  572000.0000000 4162000.0000000      21.6925707
  573000.0000000 4162000.0000000      21.6955501
  574000.0000000 4162000.0000000      21.6977601
  575000.0000000 4162000.0000000      21.7001196
  576000.0000000 4162000.0000000      21.7018826
  514000.0000000 4163000.0000000      10.9806200
  515000.0000000 4163000.0000000      10.9680294
  516000.0000000 4163000.0000000      10.9800624
  517000.0000000 4163000.0000000      10.9789893
  518000.0000000 4163000.0000000      10.9768491
  519000.0000000 4163000.0000000      10.9739234
  520000.0000000 4163000.0000000      10.9695618
  521000.0000000 4163000.0000000      10.9643281
  522000.0000000 4163000.0000000      10.9578431
  523000.0000000 4163000.0000000      10.9503376
  524000.0000000 4163000.0000000      10.9421556
  525000.0000000 4163000.0000000      10.9336038
  526000.0000000 4163000.0000000      10.9249857
  527000.0000000 4163000.0000000      10.9168827
  528000.0000000 4163000.0000000      10.9094436
  529000.0000000 4163000.0000000      10.9029443
  530000.0000000 4163000.0000000      10.8973650
  531000.0000000 4163000.0000000      10.8928916
  532000.0000000 4163000.0000000      10.8894996
  533000.0000000 4163000.0000000      10.8869454
  534000.0000000 4163000.0000000      10.8853700
  535000.0000000 4163000.0000000      10.8844213
  536000.0000000 4163000.0000000      10.8845360
  537000.0000000 4163000.0000000      10.8854049
  538000.0000000 4163000.0000000      10.8869408
  539000.0000000 4163000.0000000      10.8891318
  540000.0000000 4163000.0000000      10.8920435
  541000.0000000 4163000.0000000      10.8954958
  542000.0000000 4163000.0000000      10.8997736
  543000.0000000 4163000.0000000      10.9047561
  544000.0000000 4163000.0000000      10.9083457
  545000.0000000 4163000.0000000      11.6817201
  555000.0000000 4163000.0000000      21.4270415
  556000.0000000 4163000.0000000      21.4500664
  557000.0000000 4163000.0000000      21.4401307
  558000.0000000 4163000.0000000      21.4532265
  559000.0000000 4163000.0000000      21.4758164
  560000.0000000 4163000.0000000      21.4987863
  561000.0000000 4163000.0000000      21.5197452
  562000.0000000 4163000.0000000      21.5403904
  563000.0000000 4163000.0000000      21.5500013
  564000.0000000 4163000.0000000      21.5577838
  565000.0000000 4163000.0000000      21.5696010
  566000.0000000 4163000.0000000      21.5875465
  567000.0000000 4163000.0000000      21.6087200
  568000.0000000 4163000.0000000      21.6284879
  569000.0000000 4163000.0000000      21.6445285
  570000.0000000 4163000.0000000      21.6596715
  571000.0000000 4163000.0000000      21.6708820
  572000.0000000 4163000.0000000      21.6783530
  573000.0000000 4163000.0000000      21.6834832
  574000.0000000 4163000.0000000      21.6866102
  575000.0000000 4163000.0000000      21.6903977
  576000.0000000 4163000.0000000      21.6831180
  514000.0000000 4164000.0000000      10.8072026
  515000.0000000 4164000.0000000      10.9801851
  516000.0000000 4164000.0000000      10.9794143
  517000.0000000 4164000.0000000      10.9783043
  518000.0000000 4164000.0000000      10.9763558
  519000.0000000 4164000.0000000      10.9737892
  520000.0000000 4164000.0000000      10.9701900
  521000.0000000 4164000.0000000      10.9656741
  522000.0000000 4164000.0000000      10.9602357
  523000.0000000 4164000.0000000      10.9540051
  524000.0000000 4164000.0000000      10.9469995
  525000.0000000 4164000.0000000      10.9396013
  526000.0000000 4164000.0000000      10.9320430
  527000.0000000 4164000.0000000      10.9245792
  528000.0000000 4164000.0000000      10.9174927
  529000.0000000 4164000.0000000      10.9110330
  530000.0000000 4164000.0000000      10.9052789
  531000.0000000 4164000.0000000      10.9004015
  532000.0000000 4164000.0000000      10.8965381
  533000.0000000 4164000.0000000      10.8934728
  534000.0000000 4164000.0000000      10.8915418
  535000.0000000 4164000.0000000      10.8905014
  536000.0000000 4164000.0000000      10.8906587
  537000.0000000 4164000.0000000      10.8920190
  538000.0000000 4164000.0000000      10.8945034
  539000.0000000 4164000.0000000      10.8978223
  540000.0000000 4164000.0000000      10.9022419
  541000.0000000 4164000.0000000      10.9075879
  542000.0000000 4164000.0000000      10.9139249
  543000.0000000 4164000.0000000      10.9203276
  544000.0000000 4164000.0000000      10.9249044
  545000.0000000 4164000.0000000      11.6217837
  554000.0000000 4164000.0000000      20.8588592
  555000.0000000 4164000.0000000      21.3614765
  556000.0000000 4164000.0000000      21.3807962
  557000.0000000 4164000.0000000      21.4029082
  558000.0000000 4164000.0000000      21.4315639
  559000.0000000 4164000.0000000      21.4560667
  560000.0000000 4164000.0000000      21.4813903
  561000.0000000 4164000.0000000      21.5054257
  562000.0000000 4164000.0000000      21.5319696
  563000.0000000 4164000.0000000      21.5389884
  564000.0000000 4164000.0000000      21.5426992
  565000.0000000 4164000.0000000      21.5532219
  566000.0000000 4164000.0000000      21.5673050
  567000.0000000 4164000.0000000      21.5838484
  568000.0000000 4164000.0000000      21.6001819
  569000.0000000 4164000.0000000      21.6187746
  570000.0000000 4164000.0000000      21.6356871
  571000.0000000 4164000.0000000      21.6498606
  572000.0000000 4164000.0000000      21.6607061
  573000.0000000 4164000.0000000      21.6694078
  574000.0000000 4164000.0000000      21.6721994
  575000.0000000 4164000.0000000      21.6733424
  513000.0000000 4165000.0000000      10.9799408
  514000.0000000 4165000.0000000      10.9727704
  515000.0000000 4165000.0000000      10.9795732
  516000.0000000 4165000.0000000      10.9789544
  517000.0000000 4165000.0000000      10.9776759
  518000.0000000 4165000.0000000      10.9759774
  519000.0000000 4165000.0000000      10.9735938
  520000.0000000 4165000.0000000      10.9705094
  521000.0000000 4165000.0000000      10.9666177
  522000.0000000 4165000.0000000      10.9619799
  523000.0000000 4165000.0000000      10.9565712
  524000.0000000 4165000.0000000      10.9506046
  525000.0000000 4165000.0000000      10.9441390
  526000.0000000 4165000.0000000      10.9374062
  527000.0000000 4165000.0000000      10.9307080
  528000.0000000 4165000.0000000      10.9242122
  529000.0000000 4165000.0000000      10.9180963
  530000.0000000 4165000.0000000      10.9126013
  531000.0000000 4165000.0000000      10.9078188
  532000.0000000 4165000.0000000      10.9038352
  533000.0000000 4165000.0000000      10.9008045
  534000.0000000 4165000.0000000      10.8988945
  535000.0000000 4165000.0000000      10.8982859
  536000.0000000 4165000.0000000      10.8991171
  537000.0000000 4165000.0000000      10.9018167
  538000.0000000 4165000.0000000      10.9063882
  539000.0000000 4165000.0000000      10.9123552
  540000.0000000 4165000.0000000      10.9192378
  541000.0000000 4165000.0000000      10.9278222
  542000.0000000 4165000.0000000      10.9375384
  543000.0000000 4165000.0000000      10.9468831
  544000.0000000 4165000.0000000      10.9541966
  545000.0000000 4165000.0000000      11.5123146
  554000.0000000 4165000.0000000      21.1339471
  555000.0000000 4165000.0000000      21.2763683
  556000.0000000 4165000.0000000      21.3212600
  557000.0000000 4165000.0000000      21.3634963
  558000.0000000 4165000.0000000      21.4018446
  559000.0000000 4165000.0000000      21.4340215
  560000.0000000 4165000.0000000      21.4648069
  561000.0000000 4165000.0000000      21.4846815
  562000.0000000 4165000.0000000      21.4990688
  563000.0000000 4165000.0000000      21.5101491
  564000.0000000 4165000.0000000      21.5177242
  565000.0000000 4165000.0000000      21.5274670
  566000.0000000 4165000.0000000      21.5398348
  567000.0000000 4165000.0000000      21.5524389
  568000.0000000 4165000.0000000      21.5711056
  569000.0000000 4165000.0000000      21.5898076
  570000.0000000 4165000.0000000      21.6077623
  571000.0000000 4165000.0000000      21.6236427
  572000.0000000 4165000.0000000      21.6365207
  573000.0000000 4165000.0000000      21.6470899
  574000.0000000 4165000.0000000      21.6536072
  575000.0000000 4165000.0000000      21.6511187
  513000.0000000 4166000.0000000      10.9229207
  514000.0000000 4166000.0000000      10.9796665
  515000.0000000 4166000.0000000      10.9791854
  516000.0000000 4166000.0000000      10.9784324
  517000.0000000 4166000.0000000      10.9772207
  518000.0000000 4166000.0000000      10.9756028
  519000.0000000 4166000.0000000      10.9734326
  520000.0000000 4166000.0000000      10.9706901
  521000.0000000 4166000.0000000      10.9672805
  522000.0000000 4166000.0000000      10.9632379
  523000.0000000 4166000.0000000      10.9585400
  524000.0000000 4166000.0000000      10.9532857
  525000.0000000 4166000.0000000      10.9476263
  526000.0000000 4166000.0000000      10.9417166
  527000.0000000 4166000.0000000      10.9356936
  528000.0000000 4166000.0000000      10.9298241
  529000.0000000 4166000.0000000      10.9242856
  530000.0000000 4166000.0000000      10.9192117
  531000.0000000 4166000.0000000      10.9148507
  532000.0000000 4166000.0000000      10.9112688
  533000.0000000 4166000.0000000      10.9088069
  534000.0000000 4166000.0000000      10.9076204
  535000.0000000 4166000.0000000      10.9082429
  536000.0000000 4166000.0000000      10.9110316
  537000.0000000 4166000.0000000      10.9163552
  538000.0000000 4166000.0000000      10.9247954
  539000.0000000 4166000.0000000      10.9355923
  540000.0000000 4166000.0000000      10.9484200
  541000.0000000 4166000.0000000      10.9624856
  542000.0000000 4166000.0000000      10.9774698
  543000.0000000 4166000.0000000      10.9905009
  544000.0000000 4166000.0000000      10.9990442
  545000.0000000 4166000.0000000      11.5272246
  553000.0000000 4166000.0000000      20.2352256
  554000.0000000 4166000.0000000      21.2292809
  555000.0000000 4166000.0000000      21.2400524
  556000.0000000 4166000.0000000      21.2685647
  557000.0000000 4166000.0000000      21.3081712
  558000.0000000 4166000.0000000      21.3516515
  559000.0000000 4166000.0000000      21.3950530
  560000.0000000 4166000.0000000      21.4464511
  561000.0000000 4166000.0000000      21.4611813
  562000.0000000 4166000.0000000      21.4581936
  563000.0000000 4166000.0000000      21.4674837
  564000.0000000 4166000.0000000      21.4782582
  565000.0000000 4166000.0000000      21.4888496
  566000.0000000 4166000.0000000      21.4991984
  567000.0000000 4166000.0000000      21.5158377
  568000.0000000 4166000.0000000      21.5357677
  569000.0000000 4166000.0000000      21.5555126
  570000.0000000 4166000.0000000      21.5755246
  571000.0000000 4166000.0000000      21.5933884
  572000.0000000 4166000.0000000      21.6093361
  573000.0000000 4166000.0000000      21.6213108
  574000.0000000 4166000.0000000      21.6287560
  575000.0000000 4166000.0000000      21.6221136
  513000.0000000 4167000.0000000      10.9723572
  514000.0000000 4167000.0000000      10.9794017
  515000.0000000 4167000.0000000      10.9789172
  516000.0000000 4167000.0000000      10.9780231
  517000.0000000 4167000.0000000      10.9769072
  518000.0000000 4167000.0000000      10.9753012
  519000.0000000 4167000.0000000      10.9733476
  520000.0000000 4167000.0000000      10.9708374
  521000.0000000 4167000.0000000      10.9678036
  522000.0000000 4167000.0000000      10.9642046
  523000.0000000 4167000.0000000      10.9600778
  524000.0000000 4167000.0000000      10.9554319
  525000.0000000 4167000.0000000      10.9503897
  526000.0000000 4167000.0000000      10.9451196
  527000.0000000 4167000.0000000      10.9397800
  528000.0000000 4167000.0000000      10.9345314
  529000.0000000 4167000.0000000      10.9296389
  530000.0000000 4167000.0000000      10.9252574
  531000.0000000 4167000.0000000      10.9215576
  532000.0000000 4167000.0000000      10.9189054
  533000.0000000 4167000.0000000      10.9175745
  534000.0000000 4167000.0000000      10.9181402
  535000.0000000 4167000.0000000      10.9211758
  536000.0000000 4167000.0000000      10.9277048
  537000.0000000 4167000.0000000      10.9384283
  538000.0000000 4167000.0000000      10.9532820
  539000.0000000 4167000.0000000      10.9725097
  540000.0000000 4167000.0000000      10.9953404
  541000.0000000 4167000.0000000      11.0199777
  542000.0000000 4167000.0000000      11.0451912
  543000.0000000 4167000.0000000      11.0652319
  544000.0000000 4167000.0000000      11.0747905
  545000.0000000 4167000.0000000      11.5910384
  554000.0000000 4167000.0000000      21.1894170
  555000.0000000 4167000.0000000      21.1887277
  556000.0000000 4167000.0000000      21.1960369
  557000.0000000 4167000.0000000      21.2312871
  558000.0000000 4167000.0000000      21.2771147
  559000.0000000 4167000.0000000      21.3161224
  560000.0000000 4167000.0000000      21.3594030
  561000.0000000 4167000.0000000      21.3851916
  562000.0000000 4167000.0000000      21.3958220
  563000.0000000 4167000.0000000      21.4084120
  564000.0000000 4167000.0000000      21.4215512
  565000.0000000 4167000.0000000      21.4321202
  566000.0000000 4167000.0000000      21.4460448
  567000.0000000 4167000.0000000      21.4687499
  568000.0000000 4167000.0000000      21.4928405
  569000.0000000 4167000.0000000      21.5158624
  570000.0000000 4167000.0000000      21.5377698
  571000.0000000 4167000.0000000      21.5590202
  572000.0000000 4167000.0000000      21.5765771
  573000.0000000 4167000.0000000      21.5906409
  574000.0000000 4167000.0000000      21.6013021
  575000.0000000 4167000.0000000      21.5762893
  512000.0000000 4168000.0000000      10.9291849
  513000.0000000 4168000.0000000      10.9798497
  514000.0000000 4168000.0000000      10.9793691
  515000.0000000 4168000.0000000      10.9787441
  516000.0000000 4168000.0000000      10.9778351
  517000.0000000 4168000.0000000      10.9766494
  518000.0000000 4168000.0000000      10.9751734
  519000.0000000 4168000.0000000      10.9732955
  520000.0000000 4168000.0000000      10.9710214
  521000.0000000 4168000.0000000      10.9682643
  522000.0000000 4168000.0000000      10.9650347
  523000.0000000 4168000.0000000      10.9613385
  524000.0000000 4168000.0000000      10.9572271
  525000.0000000 4168000.0000000      10.9527645
  526000.0000000 4168000.0000000      10.9480740
  527000.0000000 4168000.0000000      10.9433485
  528000.0000000 4168000.0000000      10.9387915
  529000.0000000 4168000.0000000      10.9345828
  530000.0000000 4168000.0000000      10.9310311
  531000.0000000 4168000.0000000      10.9283797
  532000.0000000 4168000.0000000      10.9271000
  533000.0000000 4168000.0000000      10.9277271
  534000.0000000 4168000.0000000      10.9311585
  535000.0000000 4168000.0000000      10.9388054
  536000.0000000 4168000.0000000      10.9516443
  537000.0000000 4168000.0000000      10.9711688
  538000.0000000 4168000.0000000      10.9983464
  539000.0000000 4168000.0000000      11.0314991
  540000.0000000 4168000.0000000      11.0694161
  541000.0000000 4168000.0000000      11.1101429
  542000.0000000 4168000.0000000      11.1516246
  543000.0000000 4168000.0000000      11.1808765
  544000.0000000 4168000.0000000      11.1887547
  545000.0000000 4168000.0000000      11.6796648
  554000.0000000 4168000.0000000      21.0953224
  555000.0000000 4168000.0000000      21.1078112
  556000.0000000 4168000.0000000      21.1162322
  557000.0000000 4168000.0000000      21.1482377
  558000.0000000 4168000.0000000      21.1805863
  559000.0000000 4168000.0000000      21.2111104
  560000.0000000 4168000.0000000      21.2437191
  561000.0000000 4168000.0000000      21.2799708
  562000.0000000 4168000.0000000      21.3084367
  563000.0000000 4168000.0000000      21.3295276
  564000.0000000 4168000.0000000      21.3442563
  565000.0000000 4168000.0000000      21.3566714
  566000.0000000 4168000.0000000      21.3825896
  567000.0000000 4168000.0000000      21.4108133
  568000.0000000 4168000.0000000      21.4400816
  569000.0000000 4168000.0000000      21.4683675
  570000.0000000 4168000.0000000      21.4936570
  571000.0000000 4168000.0000000      21.5179885
  572000.0000000 4168000.0000000      21.5388319
  573000.0000000 4168000.0000000      21.5562669
  574000.0000000 4168000.0000000      21.5689822
  575000.0000000 4168000.0000000      21.5477271
  512000.0000000 4169000.0000000      10.9678672
  513000.0000000 4169000.0000000      10.9802338
  514000.0000000 4169000.0000000      10.9796417
  515000.0000000 4169000.0000000      10.9788022
  516000.0000000 4169000.0000000      10.9778924
  517000.0000000 4169000.0000000      10.9766428
  518000.0000000 4169000.0000000      10.9752381
  519000.0000000 4169000.0000000      10.9733922
  520000.0000000 4169000.0000000      10.9712971
  521000.0000000 4169000.0000000      10.9687830
  522000.0000000 4169000.0000000      10.9658468
  523000.0000000 4169000.0000000      10.9625191
  524000.0000000 4169000.0000000      10.9588147
  525000.0000000 4169000.0000000      10.9548582
  526000.0000000 4169000.0000000      10.9507487
  527000.0000000 4169000.0000000      10.9466538
  528000.0000000 4169000.0000000      10.9428404
  529000.0000000 4169000.0000000      10.9395365
  530000.0000000 4169000.0000000      10.9370185
  531000.0000000 4169000.0000000      10.9359806
  532000.0000000 4169000.0000000      10.9367907
  533000.0000000 4169000.0000000      10.9404864
  534000.0000000 4169000.0000000      10.9487884
  535000.0000000 4169000.0000000      10.9635588
  536000.0000000 4169000.0000000      10.9866854
  537000.0000000 4169000.0000000      11.0209556
  538000.0000000 4169000.0000000      11.0666119
  539000.0000000 4169000.0000000      11.1226660
  540000.0000000 4169000.0000000      11.1871412
  541000.0000000 4169000.0000000      11.2562288
  542000.0000000 4169000.0000000      11.3227494
  543000.0000000 4169000.0000000      11.3662822
  544000.0000000 4169000.0000000      11.3802795
  545000.0000000 4169000.0000000      12.0410736
  553000.0000000 4169000.0000000      20.2286266
  554000.0000000 4169000.0000000      20.9977360
  555000.0000000 4169000.0000000      21.0280438
  556000.0000000 4169000.0000000      21.0452644
  557000.0000000 4169000.0000000      21.0688842
  558000.0000000 4169000.0000000      21.1034119
  559000.0000000 4169000.0000000      21.1339072
  560000.0000000 4169000.0000000      21.1545532
  561000.0000000 4169000.0000000      21.1862991
  562000.0000000 4169000.0000000      21.2166636
  563000.0000000 4169000.0000000      21.2392951
  564000.0000000 4169000.0000000      21.2507538
  565000.0000000 4169000.0000000      21.2790027
  566000.0000000 4169000.0000000      21.3098965
  567000.0000000 4169000.0000000      21.3439151
  568000.0000000 4169000.0000000      21.3786193
  569000.0000000 4169000.0000000      21.4110570
  570000.0000000 4169000.0000000      21.4394179
  571000.0000000 4169000.0000000      21.4659705
  572000.0000000 4169000.0000000      21.4941489
  573000.0000000 4169000.0000000      21.5151593
  574000.0000000 4169000.0000000      21.5303747
  511000.0000000 4170000.0000000      10.9292458
  512000.0000000 4170000.0000000      10.9817046
  513000.0000000 4170000.0000000      10.9810096
  514000.0000000 4170000.0000000      10.9802595
  515000.0000000 4170000.0000000      10.9793242
  516000.0000000 4170000.0000000      10.9782765
  517000.0000000 4170000.0000000      10.9770140
  518000.0000000 4170000.0000000      10.9755388
  519000.0000000 4170000.0000000      10.9738171
  520000.0000000 4170000.0000000      10.9717685
  521000.0000000 4170000.0000000      10.9694217
  522000.0000000 4170000.0000000      10.9667712
  523000.0000000 4170000.0000000      10.9637702
  524000.0000000 4170000.0000000      10.9605011
  525000.0000000 4170000.0000000      10.9570507
  526000.0000000 4170000.0000000      10.9535625
  527000.0000000 4170000.0000000      10.9501831
  528000.0000000 4170000.0000000      10.9471773
  529000.0000000 4170000.0000000      10.9450537
  530000.0000000 4170000.0000000      10.9441527
  531000.0000000 4170000.0000000      10.9452514
  532000.0000000 4170000.0000000      10.9493125
  533000.0000000 4170000.0000000      10.9583394
  534000.0000000 4170000.0000000      10.9743762
  535000.0000000 4170000.0000000      11.0006959
  536000.0000000 4170000.0000000      11.0404556
  537000.0000000 4170000.0000000      11.0978337
  538000.0000000 4170000.0000000      11.1732568
  539000.0000000 4170000.0000000      11.2654521
  540000.0000000 4170000.0000000      11.3700523
  541000.0000000 4170000.0000000      11.4822531
  542000.0000000 4170000.0000000      11.5831324
  543000.0000000 4170000.0000000      11.6462642
  544000.0000000 4170000.0000000      11.6641529
