  565623.6875000 4182353.7500000       0.0260000
  572858.8750000 4175018.2500000       0.0260000
  580788.5000000 4164214.0000000       0.0260000
  592484.6250000 4152716.0000000       0.0260000
  590749.7500000 4131421.0000000       0.0260000
  570579.1250000 4147363.5000000       0.0260000
  553332.3125000 4160447.5000000       0.0260000
  550061.3750000 4177198.7500000       0.0260000
  553233.1875000 4182551.0000000       0.0180000
  551349.8750000 4188101.7500000       0.0180000
  547880.6875000 4193950.0000000       0.0220000
  544609.7500000 4201185.5000000       0.0200000
  544213.2500000 4209412.5000000       0.0200000
  545105.3750000 4217540.5000000       0.0200000
  549169.2500000 4220613.0000000       0.0200000
  558387.4375000 4219820.0000000       0.0200000
  566217.8750000 4213873.0000000       0.0150000
  573751.0000000 4214170.5000000       0.0234000
  576129.8750000 4210205.5000000       0.0150000
  577319.3125000 4207133.0000000       0.0260000
  561955.7500000 4190480.7500000       0.0220000
  563839.0000000 4197815.5000000       0.0220000
  559101.1250000 4220803.0000000       0.0200000
  563512.0625000 4217652.0000000       0.0200000
  565429.4375000 4215095.5000000       0.0200000
  567346.8125000 4217013.0000000       0.0200000
  562578.0000000 4227730.5000000       0.0200000
  556432.5625000 4231909.5000000       0.0200000
  546157.3750000 4233679.5000000       0.0200000
  535980.5625000 4234122.0000000       0.0200000
  530425.0625000 4233483.0000000       0.0200000
  531949.1875000 4227632.5000000       0.0200000
  537111.3125000 4220651.0000000       0.0200000
  540651.0625000 4218389.5000000       0.0200000
  543453.3750000 4221536.0000000       0.0200000
  549254.6875000 4223994.0000000       0.0200000
  551663.6875000 4225174.0000000       0.0200000
  553876.0625000 4223404.0000000       0.0200000
  557465.0000000 4222568.5000000       0.0200000
  579732.8125000 4209150.0000000       0.0260000
  577089.6250000 4213775.5000000       0.0260000
  576891.8750000 4221540.5000000       0.0260000
  579171.6250000 4231254.0000000       0.0260000
  586010.8750000 4233038.5000000       0.0260000
  603654.1875000 4229866.5000000       0.0260000
  608674.1875000 4224943.5000000       0.0260000
  616145.1250000 4221793.0000000       0.0260000
  616539.8125000 4218765.0000000       0.0260000
  616044.1875000 4212223.0000000       0.0260000
  595179.0000000 4208876.0000000       0.0260000
  587596.8125000 4209646.0000000       0.0260000
  614691.1250000 4228159.5000000       0.0230000
  616754.5625000 4227005.5000000       0.0230000
  617978.6250000 4225676.5000000       0.0230000
  624378.7500000 4227145.5000000       0.0230000
  626826.8750000 4230328.0000000       0.0230000
  627596.2500000 4233056.0000000       0.0230000
  629764.6250000 4233370.5000000       0.0230000
  630394.1250000 4234839.5000000       0.0230000
  628330.6875000 4238651.5000000       0.0230000
  627806.1250000 4244737.0000000       0.0230000
  608920.5000000 4233265.5000000       0.0230000
  608990.5000000 4238931.5000000       0.0230000
  610879.0000000 4245856.5000000       0.0230000
  612173.6875000 4253726.0000000       0.0230000
  615636.0625000 4268834.5000000       0.0230000
  621511.6250000 4283313.5000000       0.0230000
  630115.0625000 4281529.5000000       0.0230000
  634416.7500000 4278382.0000000       0.0230000
  635885.6250000 4268624.5000000       0.0230000
  634102.0000000 4254250.5000000       0.0230000
  623528.6250000 4220798.0000000       0.0330000
  624977.7500000 4220556.5000000       0.0330000
  626909.8750000 4219625.0000000       0.0330000
  630739.6250000 4219314.5000000       0.0330000
  631878.2500000 4219659.5000000       0.0330000
  637502.1875000 4221833.0000000       0.0330000
  638640.7500000 4226180.5000000       0.0330000
  639813.8125000 4237014.0000000       0.0330000
  635259.5000000 4241085.5000000       0.0330000
  630843.1875000 4242051.5000000       0.0330000
  629808.0625000 4240568.0000000       0.0330000
  630429.1250000 4238670.5000000       0.0330000
  630877.6875000 4237152.0000000       0.0330000
  630498.1250000 4236289.5000000       0.0330000
  630601.6250000 4235599.5000000       0.0330000
  630877.6875000 4234840.5000000       0.0330000
  631222.6875000 4233874.5000000       0.0330000
  630256.6250000 4232943.0000000       0.0330000
  629463.0625000 4232287.5000000       0.0330000
  628600.5000000 4232322.0000000       0.0330000
  627496.4375000 4231770.0000000       0.0330000
  627358.3750000 4230907.0000000       0.0330000
  627358.3750000 4229492.5000000       0.0330000
  626475.8750000 4228163.0000000       0.0330000
  624287.6875000 4226663.5000000       0.0240000
  623701.1250000 4224904.0000000       0.0330000
  622252.0000000 4223075.0000000       0.0330000
  622252.0000000 4221315.5000000       0.0330000
  599926.5625000 4209350.5000000       0.0260000
  602300.3125000 4210418.5000000       0.0200000
  605742.3125000 4211309.0000000       0.0260000
  609243.6250000 4212377.0000000       0.0260000
  614228.5625000 4213801.5000000       0.0260000
  617551.8125000 4218015.0000000       0.0260000
  615534.1250000 4215759.5000000       0.0260000
  619391.5000000 4219676.5000000       0.0260000
  621765.3125000 4219973.0000000       0.0260000
  623842.3125000 4218845.5000000       0.0260000
  625978.7500000 4218845.5000000       0.0260000
  629598.7500000 4218430.0000000       0.0260000
  631616.4375000 4218133.5000000       0.0260000
  633574.8125000 4218311.5000000       0.0260000
  637372.8750000 4217836.5000000       0.0260000
  641289.5625000 4217362.0000000       0.0260000
  642832.5000000 4214216.5000000       0.0260000
  646393.1875000 4207511.0000000       0.0260000
  649953.8750000 4202407.0000000       0.0260000
  650903.3750000 4200271.0000000       0.0260000
  650013.1875000 4197303.5000000       0.0260000
  647698.7500000 4198134.5000000       0.0260000
  645681.0625000 4199084.0000000       0.0260000
  642298.4375000 4200805.0000000       0.0260000
  639924.6250000 4204365.5000000       0.0260000
  636779.3750000 4206086.5000000       0.0260000
  635889.2500000 4206739.5000000       0.0260000
  634524.3125000 4207629.5000000       0.0260000
  633100.0625000 4209350.5000000       0.0260000
  632091.1875000 4210418.5000000       0.0260000
  630726.2500000 4211783.5000000       0.0260000
  629064.6250000 4212080.5000000       0.0260000
  627818.3750000 4212377.0000000       0.0260000
  625504.0000000 4213682.5000000       0.0260000
  625088.5625000 4214276.0000000       0.0260000
  623604.9375000 4216234.5000000       0.0260000
  621468.5625000 4216056.5000000       0.0260000
  619450.8750000 4215344.5000000       0.0260000
  617967.2500000 4215522.5000000       0.0260000
  616543.0000000 4214573.0000000       0.0260000
  616008.8750000 4213326.5000000       0.0260000
  615296.7500000 4212139.5000000       0.0260000
  613753.8125000 4210596.5000000       0.0260000
  611320.6875000 4209528.5000000       0.0260000
  608887.5625000 4208460.5000000       0.0260000
  604318.0625000 4207511.0000000       0.0260000
  618220.5000000 4214232.0000000       0.0250000
  620529.1875000 4214367.5000000       0.0250000
  623448.8750000 4214130.0000000       0.0250000
  624127.9375000 4213179.5000000       0.0250000
  624840.8750000 4212568.5000000       0.0250000
  627387.1875000 4209547.0000000       0.0250000
  628134.0625000 4208256.5000000       0.0225000
  627624.8125000 4206966.5000000       0.0225000
  625757.5625000 4205812.5000000       0.0225000
  624026.0625000 4205982.0000000       0.0250000
  621513.7500000 4206185.5000000       0.0250000
  619985.9375000 4206457.5000000       0.0250000
  616760.6250000 4207340.0000000       0.0250000
  616692.7500000 4208596.0000000       0.0250000
  616034.3750000 4211286.0000000       0.0237500
  617439.6875000 4212263.0000000       0.0250000
  617943.1875000 4204735.5000000       0.0212500
  621412.3750000 4204791.0000000       0.0212500
  624275.8125000 4204405.5000000       0.0212500
  626093.0000000 4204130.0000000       0.0212500
  626919.0000000 4201872.5000000       0.0212500
  627139.2500000 4199559.5000000       0.0212500
  626919.0000000 4197522.0000000       0.0212500
  626974.0625000 4195374.5000000       0.0212500
  627469.6250000 4192951.5000000       0.0212500
  628570.9375000 4191464.7500000       0.0212500
  629452.0000000 4188766.5000000       0.0212500
  629332.0625000 4186081.5000000       0.0212500
  628364.4375000 4184821.2500000       0.0212500
  623945.4375000 4186068.2500000       0.0212500
  620971.8750000 4189867.7500000       0.0212500
  619319.8750000 4195815.0000000       0.0212500
  618548.9375000 4201156.5000000       0.0212500
  630306.3750000 4182096.7500000       0.0225000
  630431.4375000 4184785.0000000       0.0225000
  631431.7500000 4187535.7500000       0.0225000
  631181.6875000 4192162.2500000       0.0225000
  629993.8125000 4194225.5000000       0.0225000
  628680.9375000 4197914.0000000       0.0225000
  628118.2500000 4201790.0000000       0.0225000
  629056.0000000 4206604.0000000       0.0225000
  629493.6875000 4208229.5000000       0.0225000
  632244.5000000 4207229.5000000       0.0225000
  635120.3125000 4203103.0000000       0.0225000
  635182.8750000 4204791.0000000       0.0225000
  639809.2500000 4199789.5000000       0.0225000
  643810.4375000 4197726.5000000       0.0225000
  648249.2500000 4194975.5000000       0.0225000
  651250.1250000 4186785.7500000       0.0225000
  651312.6875000 4179408.5000000       0.0225000
  642685.0625000 4179345.7500000       0.0225000
  636245.6875000 4180096.0000000       0.0225000
  553269.7500000 4222000.0000000       0.0200000
  556952.5625000 4221483.0000000       0.0200000
  562703.0000000 4217025.0000000       0.0200000
  564835.1250000 4214375.5000000       0.0200000
  565352.0625000 4213342.0000000       0.0150000
  540993.6250000 4217541.5000000       0.0200000
  578726.5625000 4201389.0000000       0.0260000
  581634.0625000 4202229.0000000       0.0260000
  588870.5000000 4204555.0000000       0.0260000
  553812.4375000 4179892.7500000       0.0180000
  560180.7500000 4182255.5000000       0.0260000
  558441.8750000 4184464.2500000       0.0220000
  563466.1250000 4186463.7500000       0.0220000
  567747.2500000 4214445.5000000       0.0234000
  574080.1250000 4231245.5000000       0.0260000
  537025.3125000 4216145.0000000       0.0200000
  537025.3125000 4210002.0000000       0.0200000
  537227.8125000 4201225.5000000       0.0200000
  530949.5625000 4215942.5000000       0.0200000
  621817.8125000 4224540.0000000       0.0230000
  626228.3125000 4228523.0000000       0.0230000
  629759.3750000 4235790.0000000       0.0230000
  599871.3750000 4211056.5000000       0.0260000
  602617.4375000 4212386.5000000       0.0260000
  607938.0625000 4213474.5000000       0.0260000
  611799.7500000 4215228.0000000       0.0260000
  614631.6875000 4219097.0000000       0.0260000
  616572.6875000 4221073.0000000       0.0260000
  594379.1250000 4230402.0000000       0.0260000
  609911.8125000 4214442.0000000       0.0260000
  466882.0312500 4234120.0000000       0.0230000
  497349.7500000 4107348.5000000       0.0230000
  609973.5625000 4303311.0000000       0.0230000
  669994.6250000 4275536.0000000       0.0230000
  640600.1250000 4296738.5000000       0.0230000
  650104.9375000 4259210.5000000       0.0230000
  605397.1250000 4283593.0000000       0.0230000
  545599.0625000 4185715.7500000       0.0180000
  551782.8125000 4188470.2500000       0.0180000
  552348.8750000 4191894.2500000       0.0180000
  550519.8750000 4195244.0000000       0.0180000
  549278.8125000 4199388.0000000       0.0180000
  549344.1250000 4202886.5000000       0.0180000
  551390.8750000 4205988.5000000       0.0150000
  553851.4375000 4208358.0000000       0.0150000
  557552.9375000 4210566.5000000       0.0150000
  561167.3750000 4211881.5000000       0.0150000
  564934.2500000 4212924.0000000       0.0150000
  568505.1250000 4212899.0000000       0.0150000
  570617.1875000 4212452.5000000       0.0150000
  584734.1250000 4213350.0000000       0.0150000
  586323.6250000 4213201.5000000       0.0150000
  588914.6875000 4212903.5000000       0.0150000
  590787.2500000 4212705.0000000       0.0150000
  578180.2500000 4212630.5000000       0.0150000
  579595.5000000 4214516.5000000       0.0150000
  581468.0625000 4216154.0000000       0.0150000
  584189.8125000 4216873.5000000       0.0150000
  585997.0000000 4216551.0000000       0.0150000
  587368.7500000 4216079.5000000       0.0150000
  592463.9375000 4212097.5000000       0.0150000
  594292.9375000 4211526.5000000       0.0150000
  596775.1250000 4211427.5000000       0.0150000
  598517.0625000 4212122.0000000       0.0150000
  599627.5000000 4213114.5000000       0.0150000
  600846.8125000 4213908.5000000       0.0150000
  602588.7500000 4213760.0000000       0.0150000
  604374.1875000 4213189.0000000       0.0150000
  549352.3125000 4212581.5000000       0.0200000
  555688.4375000 4216080.5000000       0.0200000
  559738.3750000 4214740.5000000       0.0200000
  583711.2500000 4218760.0000000       0.0260000
  586911.9375000 4219504.5000000       0.0260000
  583254.0000000 4215261.5000000       0.0260000
  588740.9375000 4214442.5000000       0.0260000
  592268.3125000 4213623.5000000       0.0260000
  594227.9375000 4214442.5000000       0.0260000
  557177.5625000 4190110.2500000       0.0220000
  555479.1875000 4193162.2500000       0.0220000
  555794.9375000 4183373.7500000       0.0180000
  557232.0000000 4178163.0000000       0.0180000
  557885.1875000 4172356.5000000       0.0150000
  559322.2500000 4167666.7500000       0.0150000
  562327.0000000 4163796.0000000       0.0150000
  565462.4375000 4160892.7500000       0.0150000
  569512.3750000 4157989.5000000       0.0150000
  573366.3125000 4154863.0000000       0.0150000
  576240.4375000 4152778.7500000       0.0150000
  579179.8750000 4150024.5000000       0.0150000
  601738.1875000 4212568.0000000       0.0200000
  602043.0625000 4210608.0000000       0.0200000
  603480.1250000 4208920.5000000       0.0200000
  605744.5625000 4208821.0000000       0.0240000
  605722.8125000 4213337.0000000       0.0150000
  607377.6250000 4214329.5000000       0.0150000
  609489.6875000 4215496.0000000       0.0240000
  610904.9375000 4216885.5000000       0.0240000
  612799.2500000 4218399.0000000       0.0240000
  614171.0000000 4219987.0000000       0.0240000
  614758.8750000 4221773.5000000       0.0240000
  615041.9375000 4223386.5000000       0.0240000
  615651.6250000 4224627.0000000       0.0240000
  607181.6250000 4208647.5000000       0.0240000
  608792.8750000 4209069.5000000       0.0240000
  610317.0625000 4209739.5000000       0.0240000
  611950.0625000 4210434.0000000       0.0260000
  613452.5000000 4211153.5000000       0.0260000
  578765.4375000 4211377.5000000       0.0150000
  580594.4375000 4212122.5000000       0.0150000
  581603.2500000 4212894.0000000       0.0150000
  582561.3125000 4213448.5000000       0.0150000
  583671.8125000 4213492.0000000       0.0150000
  549894.4375000 4201113.0000000       0.0200000
  550525.8750000 4203063.0000000       0.0200000
  552594.3750000 4205143.0000000       0.0200000
  555816.8750000 4207950.5000000       0.0200000
  560628.8750000 4209666.5000000       0.0200000
  563764.3125000 4211278.5000000       0.0200000
  550787.1250000 4198591.5000000       0.0200000
  560064.3750000 4179445.2500000       0.0250000
  562481.2500000 4174999.5000000       0.0250000
  566661.8125000 4168058.0000000       0.0250000
  569862.5000000 4162520.2500000       0.0250000
  574957.5625000 4157138.5000000       0.0250000
  601637.3750000 4213933.0000000       0.0150000
